ply
    format ascii 1.0           
    element vertex 72
    property double x           
    property double y           
    property double z           
    end_header
-2.45799 4.11686 12.9452
-3.07055 -0.613202 11.1363
-3.15998 -1.19231 11.5469
-2.31242 -1.3892 12.6502
-2.42288 0.898615 12.1907
-2.3809 2.99508 12.6012
-3.00357 -1.34979 11.0297
-2.13688 3.77909 13.3304
-2.50143 1.71684 11.8984
-2.44785 3.42484 12.0868
-2.69828 -1.81125 11.1557
-2.42244 1.89706 12.3769
-2.27495 0.505561 11.6488
-2.47086 2.27989 11.8994
-2.12797 1.0665 11.2529
-2.12198 4.61237 13.1725
-2.33561 0.440829 12.1852
-2.27966 2.86462 12.007
-2.46714 -2.07001 11.4596
-2.09529 0.384624 11.0623
-3.07964 -0.610671 11.7542
-2.37712 -0.352541 12.9378
-2.6491 -1.68682 11.7181
-2.36024 2.4273 12.4059
-2.26299 1.2106 11.7584
-2.02794 3.25987 11.6494
-2.07975 1.8705 11.5126
-2.24878 3.57146 12.6584
-2.28836 -0.065942 11.6857
-2.3567 -0.0745082 11.1354
-1.58958 2.72137 11.4666
-0.535506 -0.974285 10.6023
-1.95394 3.80524 11.9246
-2.19637 -1.97628 10.9598
-2.65849 -0.948804 10.8543
-2.22833 -0.556562 10.9196
-1.99639 2.45213 11.7509
-1.56201 2.12339 11.3879
-1.54723 1.18884 11.1399
-1.17508 0.795911 11.0381
-1.93892 -0.167272 10.6791
-1.41597 3.22591 11.6645
-1.19612 -0.988088 10.6677
-1.69014 -0.795711 11.0359
-2.27535 4.0648 12.3639
-1.0696 -1.76515 10.714
-1.76243 -1.35296 10.8551
-1.39539 -0.00953013 10.6385
-1.48524 -0.486437 10.6331
-2.33359 -1.44296 10.8382
-1.6224 -1.91392 10.7094
-1.59411 0.449215 10.7831
-1.28673 1.67896 11.2995
-0.869915 -0.542726 10.7444
-0.25539 -0.485276 10.76
-1.86597 4.47769 12.5401
-0.656317 -0.071195 10.9786
-1.14089 2.76448 11.7599
-1.00383 2.25067 11.668
-0.564702 -1.72881 10.9955
-0.306996 -2.09157 11.2789
-0.704415 0.602489 11.273
-1.23774 0.284814 11.2884
-1.04028 1.22601 11.4444
-1.07844 3.15836 12.2045
-0.661582 0.939728 11.6257
-0.815132 -2.40885 11.4785
-0.780336 1.48706 11.9094
-0.398071 -1.41044 11.3482
-0.139721 -1.65768 11.7295
-1.10109 -2.12268 10.8365
-0.918482 1.86701 12.1257
