ply
    format ascii 1.0           
    element vertex 71
    property double x           
    property double y           
    property double z           
    end_header
-0.382698 -0.333698 4.55253
-0.621468 -0.693568 4.65367
-0.763235 -0.81903 4.74167
-0.314903 -0.124406 4.63378
-0.482796 -0.752879 4.49338
-0.38079 0.33407 5.06816
-0.356098 -1.0414 4.48869
-0.292267 0.368966 4.84774
-0.249147 0.248422 4.71848
-0.165207 1.12471 5.02581
0.235317 -0.323768 4.4383
-0.2369 -0.876167 4.43336
-0.316606 0.0570851 4.73283
-0.282673 0.536575 5.22336
-0.296389 0.712111 5.09769
-0.210191 0.661751 4.91521
-0.246315 0.910746 4.99661
-0.291391 0.891259 5.2548
-0.195482 -0.25552 4.48062
-0.451247 -0.578274 4.59287
-0.245617 1.2281 5.21738
-0.287767 1.05796 5.1767
-0.0417249 -0.952434 4.41039
-0.168628 0.106162 4.59584
-0.283831 -0.674684 4.5068
0.340739 -0.131518 4.49759
-0.390332 -0.391201 4.76857
0.345628 -0.499923 4.51576
-0.561218 -0.908553 4.60203
-0.650808 -0.685561 4.8786
0.0879774 -0.57938 4.59584
0.293307 -0.732492 4.55898
0.34443 -0.931453 4.49291
0.0887047 -0.215292 4.55255
-0.0365678 -0.389257 4.55618
0.319872 -1.12452 4.58797
-0.41675 -1.04866 4.72171
-0.228419 -0.488357 4.58135
-0.0862499 -0.75369 4.49287
-0.0738534 0.445734 4.82948
-0.103649 -0.104938 4.59181
-0.601997 -0.926416 4.80507
-0.102626 -1.0926 4.57286
-0.272489 -0.065183 5.06849
0.225591 -0.0550142 4.67755
0.0892029 -0.781721 4.53492
0.486715 -0.313025 4.52516
-0.0860268 1.2834 5.17665
0.0330228 0.0695543 4.65406
0.179641 0.188264 4.78726
-0.0344764 0.280275 4.67815
0.148505 -1.00551 4.52753
0.508951 -0.64255 4.57293
-0.026992 0.712451 5.04167
0.133906 0.3938 4.79341
0.590952 -0.476388 4.6753
0.0828959 1.1538 5.27193
0.11974 0.629224 5.14448
0.689063 -0.733578 4.65883
-0.366458 -0.882598 4.56316
0.746907 -0.58251 4.79303
0.493794 -0.852932 4.62006
0.645242 -0.924632 4.78061
0.488221 -1.05107 4.68269
0.080237 0.948051 5.32417
0.466186 -0.0474222 4.69776
-0.296022 1.05511 5.10251
-0.251535 0.24445 4.70692
0.150284 0.41814 5.16809
-0.311107 -0.896313 4.52447
0.0943166 1.45182 5.35752
