ply
    format ascii 1.0           
    element vertex 70
    property double x           
    property double y           
    property double z           
    end_header
-0.516972 -0.654792 2.47424
-0.697543 -0.391258 2.60726
-0.794577 -0.476403 2.68969
-0.533085 -0.127945 2.49437
-0.477889 0.029571 2.53403
-0.610285 -0.439728 2.48161
-0.436386 0.409178 2.67809
-0.401383 -0.0726029 2.42316
-0.374342 0.623027 2.70562
-0.4354 -0.534196 2.41675
-0.411392 0.543044 2.92499
-0.42701 0.669181 2.83438
-0.57762 -0.30634 2.54916
-0.0872751 -0.125317 2.35427
-0.473312 0.16615 2.59879
-0.488763 0.388987 2.84277
-0.000596843 0.0183971 2.38356
-0.372254 0.199771 2.48934
-0.423164 0.309335 2.57481
-0.462785 -0.382997 2.47026
-0.421253 0.80407 2.93732
-0.332455 0.965138 2.75526
-0.655937 -0.553863 2.57363
-0.416139 0.93009 2.87342
-0.266022 0.330126 2.53488
-0.184284 -0.30771 2.49179
-0.190125 -0.0380212 2.44182
0.00121342 -0.253033 2.41211
-0.290718 -0.590433 2.38651
-0.00182274 -0.573848 2.40841
-0.0329401 -0.424586 2.45444
-0.323244 0.0444111 2.48969
-0.262311 1.095 2.85271
-0.31866 -0.43994 2.44489
-0.277241 -0.167906 2.4734
-0.41651 -0.240266 2.5104
-0.601206 -0.287376 2.68524
-0.326139 -0.695505 2.5197
-0.0726376 0.0850134 2.52871
-0.133281 0.417336 2.58949
0.106053 -0.115725 2.39848
-0.39374 0.813759 2.75059
-0.218702 0.173897 2.51509
-0.18626 -0.460611 2.45922
-0.119782 0.850402 2.96832
0.200591 -0.229258 2.51154
0.126243 -0.356615 2.44448
-0.0100558 -0.711796 2.48851
-0.143742 -0.625988 2.45723
-0.109365 0.609576 2.84281
-0.126142 1.00124 2.91088
-0.228554 0.664088 2.76674
0.103412 0.0885935 2.51778
-0.0984697 0.267385 2.5902
0.267051 -0.422268 2.4955
-0.520272 -0.528251 2.50936
-0.112155 1.23062 2.97374
-0.281199 0.459899 2.64015
0.322873 -0.303336 2.59403
0.120604 -0.512408 2.4866
0.243614 -0.557625 2.58944
0.121943 -0.654356 2.54396
-0.305023 1.23241 2.95209
-0.00619257 0.0178405 2.37715
-0.11669 1.11442 3.046
-0.148269 0.704543 2.96396
-0.0768018 0.458728 2.85516
-0.117504 0.85125 2.94961
-0.0339199 0.279819 2.71697
0.33616 -0.432294 2.63704
