ply
    format ascii 1.0           
    element vertex 72
    property double x           
    property double y           
    property double z           
    end_header
-0.00509533 -0.898112 2.54932
-0.0478908 -0.877448 2.60064
-0.0105523 -0.808427 2.56566
0.0090263 -0.642413 2.66519
0.518115 -0.928502 3.48915
-0.0365664 -0.85729 2.58017
-0.0217929 -0.861495 2.55581
-0.00181283 -0.76195 2.59334
0.0233313 -0.631128 2.6432
0.0146415 -0.689531 2.62327
0.00595078 -0.737217 2.59244
0.00359888 -0.724338 2.6138
0.011108 -0.797343 2.55461
0.0638894 -0.803074 2.53943
0.0193531 -0.62313 2.68151
-0.00260351 -0.78342 2.57749
-0.0171586 -0.841422 2.57077
1.25074 -1.1112 4.67639
0.0144589 -0.75251 2.57306
-13.2961 7.74338 -19.3178
0.00751627 -0.875668 2.54057
0.0776126 -0.779347 2.54788
0.0364879 -0.673915 2.72254
0.0805451 -0.828243 2.5485
-0.16506 -0.790308 2.35996
0.0024674 -0.851572 2.55372
0.0264783 -0.860097 2.54684
0.031671 -0.732084 2.5839
0.0410889 -0.615948 2.67755
0.0321897 -0.815426 2.55933
0.0294749 -0.714732 2.60771
0.0491777 -0.840767 2.56149
0.00996428 -0.828726 2.56497
0.0800641 -0.909919 2.54982
0.0320412 -0.884963 2.53414
0.0748473 -0.859355 2.55016
0.0241387 -0.778944 2.56804
0.0677711 -0.774984 2.57792
0.102673 -0.847489 2.54965
0.0550727 -0.718317 2.59655
0.0464779 -0.792081 2.55864
0.0408696 -0.757951 2.57613
0.0502821 -0.864396 2.54877
0.100221 -0.802267 2.54608
0.0630252 -0.744671 2.59064
0.0999826 -0.771174 2.57225
0.0839614 -0.881641 2.53289
0.120384 -0.824888 2.55862
0.0125756 -0.658144 2.63684
0.040633 -0.683972 2.63236
0.0597544 -0.891636 2.54186
0.133864 -0.85763 2.54852
0.0629171 -0.660296 2.6682
0.107983 -0.872678 2.54474
0.0624216 -0.631374 2.66426
0.145996 -0.839327 2.56566
0.0648029 -0.695098 2.64035
0.133684 -0.882935 2.55745
0.109594 -0.900063 2.5541
0.0640502 -0.618093 2.68984
0.0571153 -0.686147 2.66593
0.0369338 -0.614075 2.65925
0.0285608 -0.595299 2.67919
0.06598 -0.722732 2.64553
0.0594898 -0.59445 2.68696
0.0680455 -0.771248 2.57384
0.10391 -0.83442 2.64766
0.0749402 -0.74729 2.61573
0.146972 -0.865859 2.57524
0.107628 -0.792939 2.58313
0.0760807 -0.748735 2.64157
0.0855075 -0.817179 2.64526
