ply
    format ascii 1.0           
    element vertex 77
    property double x           
    property double y           
    property double z           
    end_header
0.470973 -0.973399 2.58784
0.484693 -1.02669 2.53368
0.465538 -1.0601 2.54463
0.47421 -1.05839 2.53256
0.472073 -0.95656 2.599
0.496193 -1.00225 2.52553
0.479653 -0.963566 2.58533
0.501546 -0.9915 2.53112
0.497954 -1.07473 2.52256
0.47721 -0.999083 2.5654
0.474712 -0.988648 2.5727
0.487991 -1.05938 2.52763
0.488517 -0.973304 2.58232
0.473049 -1.04963 2.54445
0.484636 -1.00852 2.53452
0.50174 -1.06141 2.52394
0.493756 -1.03035 2.52299
0.479731 -0.944496 2.60586
0.479333 -1.02292 2.5465
0.490484 -0.996041 2.53727
0.545497 -1.06178 2.53281
0.481451 -1.00826 2.54947
0.489151 -1.04154 2.53365
0.493891 -1.01776 2.52903
0.505552 -1.01257 2.52337
0.489802 -1.07853 2.53338
0.474239 -1.01783 2.555
0.46756 -1.02307 2.56575
0.467975 -1.05316 2.55459
0.493178 -0.960574 2.5881
0.474884 -1.03158 2.55397
0.471632 -1.01065 2.56267
0.486277 -0.981295 2.57363
0.483198 -0.954144 2.59508
0.520237 -1.05836 2.53136
0.472855 -1.07137 2.53986
0.487258 -0.991234 2.56763
0.511468 -1.07742 2.52231
0.511388 -1.00029 2.52695
0.502773 -1.04066 2.52776
0.506569 -1.02645 2.52786
0.484603 -1.05318 2.53969
0.522244 -1.07073 2.52621
0.508222 -1.05311 2.53143
0.499321 -0.993455 2.56482
0.515937 -1.03656 2.52672
0.501428 -0.977354 2.58116
0.543192 -1.04955 2.53521
0.497238 -0.987172 2.57384
0.52985 -1.05527 2.53816
0.539414 -1.04039 2.55087
0.532041 -1.08798 2.54043
0.531873 -1.02602 2.5513
0.533112 -1.04919 2.54468
0.523575 -1.03378 2.54842
0.534814 -1.07014 2.53025
0.520062 -1.08336 2.53054
0.508713 -0.988466 2.57301
0.51645 -1.01958 2.53427
0.542889 -1.07651 2.53479
0.513839 -1.03218 2.5385
0.550767 -1.05569 2.54344
0.510487 -0.998972 2.56708
0.520185 -1.01994 2.54721
0.550944 -1.06796 2.54284
0.507367 -1.06757 2.53083
0.519286 -1.04528 2.5367
0.507928 -0.995632 2.54138
0.513545 -1.00775 2.53965
0.523103 -1.01782 2.56314
0.507421 -1.01135 2.57734
0.506505 -1.01083 2.56228
0.510888 -1.01897 2.5883
0.473634 -0.944744 2.61006
0.48586 -0.963334 2.60742
0.530848 -1.08346 2.55748
20.8525 7.02201 -16.629
