ply
    format ascii 1.0           
    element vertex 71
    property double x           
    property double y           
    property double z           
    end_header
-0.417135 -0.0178923 2.97754
-0.543309 -0.645058 3.00406
-0.628458 -0.921541 2.7987
-0.635679 -0.759296 2.52821
-0.37405 -0.103952 3.02412
-0.484948 -0.436858 2.98422
-0.61696 -0.828151 2.80501
-0.650532 -0.801669 2.68813
-0.593509 -0.680528 2.81619
-0.639779 -0.860381 2.56292
-0.578707 -0.593574 2.66253
-0.478192 -0.410071 2.87278
-0.426033 -0.192055 2.90263
-0.350182 -0.287415 3.04802
-0.605621 -0.72077 2.71849
-0.432008 -0.851362 2.98072
-0.493574 -0.519255 2.87059
-0.40494 -0.289101 2.90493
-0.545271 -0.729078 2.90438
-0.58303 -0.588968 2.78001
-0.617767 -0.727662 2.61226
-0.401999 -0.106675 2.90426
-0.490368 -0.749657 3.00774
-0.501654 -0.573691 2.94194
-0.617589 -0.892177 2.69815
-0.491296 -0.559162 3.04995
-0.393625 -0.200651 2.9977
-0.407056 -1.01199 2.88715
-0.465687 -0.496943 2.77343
-0.409167 -0.370864 2.96872
-0.33986 -0.00868292 3.05881
-0.539834 -0.62003 2.87185
-0.266328 -0.0794254 3.08265
-0.360609 0.0551577 2.9857
-0.429862 -0.663236 3.05263
-0.427562 -0.900953 2.88058
-0.580026 -0.816354 2.46856
-0.301454 -0.197983 3.05222
-0.534622 -0.82708 2.85526
-0.593304 -0.933474 2.61683
-0.197083 -0.780476 3.02806
-0.358767 -0.938761 2.97637
-0.568006 -0.968962 2.7044
-0.298158 -0.857154 3.02253
-0.569809 -0.675938 2.64253
-0.565827 -0.981248 2.80646
-0.540547 -0.925821 2.8671
-0.464651 -0.796163 2.90458
-0.390904 -0.467788 3.04873
-0.174195 -0.981071 2.93503
-0.293 -0.984673 2.90514
-0.334563 -0.390767 3.03315
-0.21014 -0.678287 3.00823
-0.374388 -0.763315 3.0078
-0.233684 -0.410307 3.02909
-0.470622 -0.970169 2.81973
-0.453007 -0.656076 3.0627
-0.386905 -0.572015 3.08134
-0.0614305 -0.970608 2.87231
-0.352382 -0.66807 3.04066
-0.281494 -0.73564 2.99551
-0.198356 -0.886442 2.97579
-0.217924 -0.514012 2.99503
-0.24403 -0.283345 3.00442
-0.0974925 -0.903934 2.93056
-0.271205 0.0488489 3.05127
-0.133188 -1.00509 2.83529
-0.505399 -1.00461 2.73819
-0.284608 -0.609411 2.99053
-0.119682 -0.824292 2.89223
-0.201242 -0.425417 2.91173
