ply
    format ascii 1.0           
    element vertex 78
    property double x           
    property double y           
    property double z           
    end_header
0.495276 -0.287039 1.43776
0.493644 -0.297164 1.43192
0.493241 -0.253103 1.45336
0.503092 -0.259471 1.44944
0.49435 -0.314761 1.42472
0.493614 -0.279 1.43971
0.495123 -0.308973 1.42247
0.49915 -0.290667 1.43249
0.493314 -0.271679 1.4435
0.50536 -0.3001 1.42571
0.495054 -0.258959 1.44826
0.491843 -0.317028 1.43048
0.496728 -0.302611 1.4284
0.500634 -0.303993 1.42432
0.495669 -0.26736 1.4438
0.49349 -0.305127 1.43172
0.497508 -0.282891 1.4376
0.495338 -0.293183 1.43363
0.498283 -0.296448 1.4321
0.49885 -0.28652 1.43485
0.491586 -0.281734 1.44427
0.501745 -0.251398 1.45242
0.504316 -0.307112 1.42349
0.493765 -0.309236 1.42986
0.497423 -0.271118 1.44255
0.498977 -0.274297 1.43975
0.500136 -0.299481 1.42837
0.497583 -0.301276 1.43313
0.487992 -0.3111 1.4297
0.491622 -0.277289 1.44351
0.495603 -0.275213 1.44323
0.500814 -0.264759 1.44527
0.498486 -0.278448 1.43777
0.493999 -0.248969 1.45405
0.495658 -0.263703 1.44661
0.50521 -0.311498 1.42529
0.495297 -0.283517 1.44105
0.504398 -0.283153 1.44015
0.506906 -0.291991 1.43627
0.50323 -0.294393 1.43366
0.503099 -0.315609 1.42507
0.511978 -0.30666 1.42904
0.498997 -0.313039 1.42548
0.502397 -0.247568 1.45554
0.505098 -0.2761 1.44539
0.513097 -0.311035 1.42811
0.497703 -0.306304 1.42464
0.499582 -0.259748 1.44679
0.501788 -0.269982 1.44819
0.507692 -0.309286 1.42788
0.501581 -0.28694 1.4388
0.497897 -0.253281 1.4508
0.50257 -0.276707 1.44096
0.503521 -0.265606 1.44919
0.516765 -0.306586 1.43007
0.508557 -0.296593 1.43406
0.501914 -0.252567 1.45727
0.511356 -0.315625 1.4271
0.505256 -0.304951 1.42792
0.501223 -0.273057 1.44389
0.507526 -0.301233 1.43076
0.497496 -0.248625 1.45168
0.503479 -0.297754 1.43062
0.502281 -0.280231 1.44633
0.517646 -0.308609 1.43483
12.1743 -0.4405 -11.5983
0.515911 -0.302762 1.43405
0.51271 -0.316153 1.43213
0.506862 -0.28937 1.44143
0.508578 -0.295533 1.4397
0.510696 -0.320341 1.42948
0.515861 -0.31305 1.43445
0.506388 -0.284452 1.44736
0.505698 -0.285518 1.44325
0.507844 -0.300488 1.44007
0.502533 -0.268824 1.45259
0.512992 -0.31766 1.43576
0.505127 -0.276083 1.44911
