ply
    format ascii 1.0           
    element vertex 77
    property double x           
    property double y           
    property double z           
    end_header
-0.593763 -0.599541 3.44862
-0.779319 -1.27644 3.17471
-0.64315 -0.908458 3.23278
-0.759796 -1.3561 3.26873
-0.78569 -1.40105 3.34454
-0.710481 -1.03741 3.2825
-0.673066 -0.87326 3.43675
-0.792294 -1.18852 3.19409
-0.710236 -1.04514 3.16968
-0.589923 -0.986526 3.18005
-0.706913 -1.50513 3.2145
-0.72912 -1.20488 3.11046
-0.68987 -1.43371 3.06286
-0.682065 -0.718075 3.42029
-0.425036 -1.31341 3.02038
-0.698265 -1.1073 3.10579
-0.640973 -1.53052 3.14253
-0.664768 -0.969026 3.31033
-0.71082 -1.44067 3.13977
-0.731204 -1.46775 3.36449
-0.742934 -1.43297 3.26207
-0.607383 -1.4015 3.04388
-0.663767 -0.855939 3.34336
-0.568619 -0.793915 3.30813
-0.667973 -1.36631 3.11904
-0.660428 -0.985206 3.2331
-0.725799 -1.34795 3.18418
-0.625647 -1.28701 3.07276
-0.72847 -1.32708 3.34664
-0.508631 -0.849337 3.27591
-0.689596 -1.2819 3.1334
-0.617806 -1.48815 3.04933
-0.49109 -1.26262 3.07336
-0.523131 -1.0292 3.14217
-0.484406 -0.635039 3.47015
-0.62281 -1.1773 3.08443
-0.406815 -1.39661 3.06318
-0.60623 -1.08507 3.10914
-0.453316 -0.978071 3.1943
-0.538022 -1.16023 3.09993
-0.306181 -1.50734 3.15461
-0.64065 -0.778493 3.31546
-0.612841 -0.695996 3.41518
-0.359854 -1.18795 3.1449
-0.303005 -1.26129 3.14183
-0.424189 -1.1326 3.1698
-0.62564 -0.603752 3.43235
-0.611432 -0.848536 3.29123
-0.522796 -0.936752 3.1955
-0.678798 -0.792376 3.39277
-0.56385 -1.24112 3.11318
-0.534189 -1.40761 3.09225
-0.443558 -1.05249 3.1749
-0.609993 -1.49105 3.06341
-0.499688 -1.11279 3.15567
-0.461924 -0.907037 3.25069
-0.399378 -1.25665 3.1077
-0.463595 -1.20001 3.12906
-0.213489 -1.39978 3.24287
-0.519589 -0.679908 3.38479
-0.563181 -1.32549 3.11737
-0.292442 -1.40483 3.19595
-0.465115 -0.681233 3.44594
-0.205609 -1.36134 3.34082
-0.361927 -1.32438 3.07273
-0.250202 -1.47386 3.19221
-0.375897 -1.12831 3.23307
-0.358144 -1.40911 3.13657
-0.552856 -0.582101 3.44496
-0.42526 -1.54334 3.18205
-0.627559 -0.601523 3.4144
-0.326408 -1.21463 3.23665
-0.267929 -1.33649 3.27791
-0.392638 -1.48182 3.1681
-0.371011 -1.09964 3.2975
-0.273449 -1.31393 3.36227
-0.412024 -1.04688 3.25277
