ply
    format ascii 1.0           
    element vertex 86
    property double x           
    property double y           
    property double z           
    end_header
13.1027 16.8064 -44.2266
0.514441 -3.68558 8.91249
0.493973 -3.74647 9.09885
0.528447 -3.62938 8.82381
0.518032 -3.6434 8.86443
0.528467 -3.66655 8.83362
0.522227 -3.65121 8.86479
0.520682 -3.64466 8.86402
0.525469 -3.62925 8.84907
0.528383 -3.63471 8.78146
0.523218 -3.63985 8.86851
0.519791 -3.65329 8.89292
0.526013 -3.64023 8.79515
0.525986 -3.64217 8.81215
0.523017 -3.6527 8.84134
0.518676 -3.63839 8.86467
0.52571 -3.64187 8.79395
0.52045 -3.65953 8.8343
0.524711 -3.64579 8.80745
0.521777 -3.65958 8.86903
0.525405 -3.64491 8.81158
0.521086 -3.64954 8.85075
0.512882 -3.67506 8.93934
0.52678 -3.66402 8.8416
0.527647 -3.63576 8.81172
0.516518 -3.69288 8.97797
0.524017 -3.65833 8.82348
0.527225 -3.63189 8.85339
0.522102 -3.65627 8.81987
0.530913 -3.62453 8.82149
0.511823 -3.65577 8.83818
0.509846 -3.63909 8.91571
0.522358 -3.66773 8.88267
0.527887 -3.64995 8.79957
0.52328 -3.65349 8.82744
0.521523 -3.68139 8.89547
0.521048 -3.66479 8.86639
0.525553 -3.68265 8.88721
0.533692 -3.6681 8.86575
0.522784 -3.63927 8.85508
0.503383 -3.66848 8.90415
0.510367 -3.65464 8.85318
0.523679 -3.64428 8.8708
0.522516 -3.65433 8.90581
0.527476 -3.64075 8.8653
0.529751 -3.63565 8.78511
0.530891 -3.65225 8.80751
0.515746 -3.65563 8.86645
0.525328 -3.6553 8.82341
0.530347 -3.63544 8.85038
0.526363 -3.67495 8.90434
0.532814 -3.65497 8.81233
0.529765 -3.65059 8.80065
0.528539 -3.6732 8.87675
0.52436 -3.65328 8.88109
0.520741 -3.66809 8.90395
0.52646 -3.65286 8.82399
0.528773 -3.64998 8.87371
0.533778 -3.62427 8.81638
0.530336 -3.65041 8.85904
0.529629 -3.62385 8.83232
0.53217 -3.63027 8.82977
0.521698 -3.66257 8.90236
0.526415 -3.62581 8.83788
0.528392 -3.65241 8.80997
0.529278 -3.66843 8.89848
0.534305 -3.65901 8.84933
0.520418 -3.68814 8.929
0.525493 -3.66604 8.904
0.537935 -3.6495 8.79778
0.533165 -3.63658 8.83679
0.53221 -3.68058 8.88634
0.53883 -3.65754 8.82994
0.534351 -3.62733 8.82181
0.535385 -3.66001 8.82363
0.536039 -3.66209 8.83608
0.530751 -3.64115 8.84906
0.531538 -3.67104 8.85501
0.530925 -3.6284 8.83663
0.533832 -3.63355 8.8369
0.537273 -3.67571 8.88886
0.538351 -3.65388 8.8129
0.536863 -3.64706 8.82037
0.531023 -3.63283 8.85183
0.532379 -3.62364 8.82686
0.53297 -3.64867 8.84281
