ply
    format ascii 1.0           
    element vertex 68
    property double x           
    property double y           
    property double z           
    end_header
0.0201482 -0.258582 0.746803
-0.0302516 -0.151232 0.76377
-0.0449833 -0.143245 0.778259
-0.040028 -0.203094 0.751711
-0.0573981 -0.106573 0.789461
-0.0242895 -0.169189 0.747575
0.0303433 -0.241954 0.744009
-0.0525444 -0.277407 0.729897
-0.0394041 -0.234717 0.743362
0.00960683 -0.271376 0.736705
-0.0405508 -0.095696 0.787088
-0.0400221 -0.169502 0.760535
-0.0385464 -0.115398 0.7832
-0.000294705 -0.258991 0.750462
-0.0344161 -0.283402 0.727116
-0.0961664 -0.278037 0.694169
-0.0111737 -0.273422 0.738925
-0.0146833 -0.284288 0.725093
-0.0629169 -0.245348 0.738488
-0.0497865 -0.18573 0.755443
-0.0197729 -0.257786 0.745759
-0.0568561 -0.126429 0.782916
-0.0558149 -0.156702 0.765501
-0.0774794 -0.152929 0.748798
-0.0730448 -0.285336 0.697101
-0.0266454 -0.208273 0.735865
-0.0596784 -0.228521 0.747888
-0.0483737 -0.25793 0.733132
0.0114039 -0.240937 0.750824
-0.0254587 -0.289994 0.711227
0.00351547 -0.277771 0.719679
-0.0100735 -0.281811 0.700089
-0.0693137 -0.184161 0.745156
-0.0661276 -0.278337 0.715514
-0.00895017 -0.241361 0.748032
-0.0584484 -0.210161 0.741702
-0.05486 -0.282504 0.689635
-0.0096895 -0.194307 0.723895
-0.0453203 -0.284896 0.708328
-0.0832658 -0.26857 0.706398
-0.0686093 -0.258561 0.71899
-0.02858 -0.267759 0.730353
-0.0755472 -0.222332 0.737357
-0.0837374 -0.248936 0.70017
-0.0764045 -0.237387 0.721306
-0.0311167 -0.250407 0.736181
-0.0749845 -0.122861 0.754484
-0.09461 -0.257714 0.683709
-0.0905255 -0.290069 0.67727
-0.0711677 -0.292453 0.679112
-0.073946 -0.199127 0.730561
-0.0643653 -0.112098 0.770055
-0.061974 -0.136786 0.764738
-0.0785784 -0.198484 0.70808
-0.0306692 -0.284521 0.694197
-0.072595 -0.167534 0.731228
-0.0544128 -0.0863949 0.775552
-0.060352 -0.0957833 0.756063
-0.0694616 -0.215601 0.719387
-0.0902205 -0.273781 0.665371
-0.0686679 -0.2093 0.690049
-0.0771594 -0.22639 0.701738
-0.0702157 -0.233909 0.6819
-0.062902 -0.136 0.738705
-0.0662665 -0.184095 0.717202
-0.0585793 -0.220509 0.672158
-0.0585232 -0.150946 0.721423
-0.0829205 -0.25663 0.669544
