ply
    format ascii 1.0           
    element vertex 62
    property double x           
    property double y           
    property double z           
    end_header
-0.059212 -0.21672 0.51108
-0.0592591 -0.0841005 0.577071
-0.0802686 -0.197897 0.500706
-0.0582039 -0.185877 0.505829
-0.0607244 -0.167233 0.504203
-0.069192 -0.176609 0.504114
-0.0513172 -0.140842 0.542122
-0.0440095 -0.0864105 0.577441
-0.0561087 -0.201782 0.507776
-0.0645929 -0.144937 0.534937
-0.0682242 -0.109598 0.567889
-0.0939225 -0.199665 0.505068
-0.0498916 -0.103628 0.561633
-0.0429343 -0.124849 0.562381
-0.0578027 -0.117741 0.562174
-0.0626577 -0.154835 0.525974
-0.0553173 -0.163912 0.51621
-0.0400598 -0.151186 0.547297
-0.0493584 -0.173544 0.510371
-0.0503801 -0.152996 0.535728
-0.0657416 -0.13625 0.546409
-0.0369065 -0.144065 0.571128
-0.0428451 -0.167317 0.541358
-0.0473149 -0.1892 0.516538
-0.0730263 -0.188553 0.509551
-0.0389835 -0.115196 0.58498
-0.0387155 -0.181852 0.542321
-0.0492388 -0.128242 0.548404
-0.0463997 -0.113818 0.571769
-0.043463 -0.14019 0.556966
-0.037408 -0.176598 0.555947
-0.0740732 -0.201874 0.51345
-0.0496994 -0.20345 0.520595
-0.0474664 -0.10188 0.586752
-0.0525275 -0.164714 0.529826
-0.0493526 -0.206875 0.553466
-0.0464125 -0.175944 0.523983
-0.0515263 -0.215499 0.534527
-0.0448632 -0.18996 0.53163
-0.0500631 -0.221419 0.548794
-0.0421179 -0.131923 0.577005
-0.0444374 -0.163881 0.558516
-0.0526955 -0.217138 0.565584
-0.0531353 -0.201781 0.535091
-0.0481572 -0.192928 0.545203
-0.0442943 -0.190363 0.559585
-0.0524271 -0.201368 0.568581
-0.0481779 -0.151774 0.565834
-0.0464311 -0.17765 0.568106
-0.0701398 -0.22402 0.51775
-0.0516661 -0.133959 0.588491
-0.0538243 -0.100803 0.572272
-0.0489916 -0.0874929 0.587465
-0.062707 -0.201582 0.579208
-0.0509148 -0.149527 0.580506
-0.0526241 -0.165878 0.573611
-0.0621971 -0.157257 0.581611
-0.052153 -0.203005 0.536853
-0.0622567 -0.229924 0.55111
-0.0650819 -0.225984 0.564419
-0.0724161 -0.208173 0.576186
-0.0588921 -0.184346 0.56769
