ply
    format ascii 1.0           
    element vertex 66
    property double x           
    property double y           
    property double z           
    end_header
-0.0120749 -0.0419849 0.501197
0.00871126 -0.195272 0.423474
-0.00199976 -0.169474 0.401989
0.00232006 -0.0473442 0.511211
-0.0185793 -0.168491 0.397856
0.0194455 -0.137957 0.420477
0.0179409 -0.159906 0.422021
0.00957658 -0.147158 0.414124
-0.00601837 -0.0873419 0.469171
0.0160674 -0.17879 0.423536
0.0092611 -0.109177 0.466168
0.00601389 -0.123011 0.441942
-0.000117871 -0.111198 0.450604
0.0258657 -0.147453 0.433044
0.00926501 -0.0949142 0.474901
-0.0180609 -0.103985 0.450992
0.00696122 -0.0922259 0.493182
-0.0171921 -0.0697422 0.483061
0.014982 -0.122976 0.477488
-0.00551973 -0.0806381 0.483338
-0.0261157 -0.057775 0.496016
0.0118617 -0.123341 0.459393
-0.00648333 -0.100745 0.461582
0.0175434 -0.134978 0.436089
0.0138225 -0.14124 0.468252
-0.00582229 -0.121461 0.432395
-0.00197215 -0.0817391 0.518757
0.0215631 -0.165716 0.438939
0.00179082 -0.159834 0.415192
0.00399413 -0.115401 0.503525
-0.000374668 -0.078811 0.501331
0.00757855 -0.109586 0.485916
-0.00453004 -0.17482 0.418294
0.0143755 -0.158717 0.470242
0.00165925 -0.194888 0.451619
0.00783164 -0.152928 0.485203
-0.00887663 -0.0648179 0.516541
0.0138082 -0.181744 0.440064
0.0119943 -0.136255 0.451247
-0.00644852 -0.185497 0.472314
0.019578 -0.150467 0.448157
-0.00680304 -0.201989 0.465768
0.0137155 -0.166867 0.455123
0.0045429 -0.0665911 0.490288
0.00203527 -0.137039 0.484515
0.0028574 -0.179305 0.452112
-0.00317987 -0.167494 0.483019
-0.0184771 -0.178719 0.485566
-0.0192821 -0.19661 0.480861
0.00145404 -0.169632 0.466232
-0.00142768 -0.101119 0.508162
-0.00402113 -0.122684 0.490779
-0.0296696 -0.205183 0.473154
-0.00676775 -0.0621244 0.497565
-0.00732007 -0.201735 0.422858
-0.00817815 -0.152617 0.491434
-0.00817356 -0.0480775 0.518297
-0.0270414 -0.127829 0.497602
-0.0210918 -0.209493 0.459927
-0.0343304 -0.177509 0.489634
-0.015597 -0.120149 0.503728
-0.0153594 -0.137922 0.494036
-0.0212226 -0.100014 0.510556
0.000504477 -0.180453 0.452899
-0.0135363 -0.20203 0.44573
-0.0250473 -0.155856 0.478825
