ply
    format ascii 1.0           
    element vertex 67
    property double x           
    property double y           
    property double z           
    end_header
-0.0675893 -0.333288 1.31236
0.0117516 -0.489481 1.2215
-0.00883667 -0.40662 1.25682
-0.0365098 -0.374822 1.28381
-0.00549168 -0.510142 1.23027
-0.0232517 -0.362589 1.26063
0.0579889 -0.503779 1.19416
-0.000981606 -0.450872 1.22987
-0.0220219 -0.447735 1.25184
0.0672288 -0.50123 1.17023
-0.0206807 -0.53242 1.19412
-0.00130775 -0.426858 1.24214
-0.0490373 -0.330711 1.29054
0.0534674 -0.523452 1.17447
0.025208 -0.463229 1.20606
0.0269859 -0.537885 1.16966
0.00675218 -0.419366 1.21566
-0.0134329 -0.545884 1.17019
0.0446768 -0.485713 1.18701
-0.010179 -0.480698 1.23235
-0.0459202 -0.408235 1.26414
-0.0799626 -0.307753 1.30644
0.0626581 -0.510307 1.15258
0.0333255 -0.512297 1.19292
-0.0263407 -0.389199 1.26277
0.00377118 -0.507091 1.20393
0.012085 -0.441972 1.20348
0.0194903 -0.48605 1.19473
0.0473908 -0.532414 1.1496
-0.0570584 -0.539099 1.19448
0.00421697 -0.526987 1.18078
-0.0609305 -0.516017 1.21326
-0.0893693 -0.522024 1.21245
-0.0295251 -0.498706 1.23327
-0.0336636 -0.468304 1.23397
-0.0627666 -0.364418 1.28835
-0.0554884 -0.431317 1.25219
-0.0655938 -0.546484 1.16064
-0.0297713 -0.513531 1.21032
-0.029097 -0.422852 1.24754
-0.0367853 -0.536517 1.17434
-0.0602322 -0.466299 1.22364
-0.0796853 -0.378536 1.27326
-0.0709838 -0.409042 1.25002
-0.0825279 -0.525715 1.18657
-0.0458804 -0.445353 1.23615
-0.00126767 -0.536604 1.13979
-0.0575977 -0.38777 1.27715
-0.0788593 -0.502488 1.22191
-0.0468481 -0.490887 1.21602
-0.0887317 -0.514234 1.12024
-0.0634109 -0.438947 1.21639
-0.0962463 -0.490072 1.20978
-0.0791887 -0.342349 1.26763
-0.0435115 -0.542784 1.14828
-0.0652036 -0.54493 1.15777
-0.0675946 -0.464989 1.19923
-0.066228 -0.523622 1.11073
-0.0845739 -0.501744 1.14138
-0.0775142 -0.521574 1.15153
-0.0650398 -0.387272 1.25039
-0.0822129 -0.365123 1.25116
-0.0708099 -0.378991 1.22844
-0.052099 -0.336053 1.29163
-0.0696088 -0.498823 1.16697
-0.0502444 -0.411452 1.20081
-0.0650895 -0.400633 1.22241
