ply
    format ascii 1.0           
    element vertex 65
    property double x           
    property double y           
    property double z           
    end_header
-0.120854 -0.173927 0.581353
-0.118294 -0.103528 0.626782
-0.124077 -0.182755 0.586833
-0.116006 -0.150313 0.597943
-0.129204 -0.164357 0.601202
-0.130921 -0.192672 0.588472
-0.1297 -0.203821 0.588124
-0.124187 -0.148714 0.609462
-0.112139 -0.184119 0.581037
-0.136945 -0.202787 0.596803
-0.108035 -0.205992 0.588383
-0.106557 -0.106003 0.61896
-0.11717 -0.142392 0.604661
-0.107614 -0.0982455 0.628786
-0.109473 -0.134583 0.605372
-0.116257 -0.162168 0.595967
-0.101401 -0.121489 0.611835
-0.110296 -0.16698 0.586843
-0.121505 -0.192799 0.583903
-0.100779 -0.142391 0.606774
-0.120623 -0.212083 0.590817
-0.118885 -0.202653 0.584812
-0.10305 -0.160833 0.59397
-0.0895647 -0.20179 0.600987
-0.0997191 -0.187629 0.589787
-0.0910051 -0.17417 0.599397
-0.11049 -0.193118 0.587062
-0.0903525 -0.149604 0.607441
-0.0993 -0.114946 0.622697
-0.102432 -0.177713 0.584571
-0.0938914 -0.211307 0.603289
-0.0871903 -0.192454 0.606265
-0.088384 -0.142228 0.617681
-0.110721 -0.17363 0.578462
-0.101748 -0.198176 0.593988
-0.116123 -0.128256 0.609056
-0.0947049 -0.159327 0.600199
-0.103344 -0.149292 0.597349
-0.0971031 -0.105354 0.628701
-0.0868048 -0.165505 0.604675
-0.115319 -0.118408 0.612538
-0.0908023 -0.200509 0.598532
-0.0823134 -0.198276 0.613519
-0.0946533 -0.133147 0.613864
-0.0944554 -0.184662 0.608099
-0.0847052 -0.207346 0.608539
-0.100256 -0.17259 0.593754
-0.101425 -0.128439 0.605564
-0.0866952 -0.175111 0.610436
-0.0941283 -0.127319 0.624025
-0.097558 -0.182126 0.59754
-0.0905763 -0.189664 0.61967
-0.0956014 -0.118025 0.633828
-0.0868009 -0.153432 0.619595
-0.0947949 -0.134245 0.633344
-0.113402 -0.141238 0.601787
-0.0937823 -0.159645 0.612199
-0.122843 -0.202792 0.584839
-0.110281 -0.10535 0.620647
-0.0864655 -0.209097 0.618305
-0.0984721 -0.10306 0.637857
-0.101871 -0.0982848 0.6492
-0.0894646 -0.167522 0.618161
-0.0988894 -0.110707 0.646317
-0.0977837 -0.12263 0.640609
