ply
    format ascii 1.0           
    element vertex 67
    property double x           
    property double y           
    property double z           
    end_header
-0.382106 1.01352 4.33388
-0.742883 -0.45664 3.69324
-0.646364 -1.03118 3.84474
-0.709344 -0.825872 3.8757
-0.619467 -0.252282 4.05801
-0.519313 0.0693783 4.11761
-0.577192 0.0487032 3.85645
-0.676538 -0.618106 3.79124
-0.640087 -0.803609 4.05051
-0.503934 0.492654 4.0392
-0.650161 -0.391018 3.86448
-0.481254 0.687986 4.05954
-0.637939 -1.02509 4.03741
-0.635689 -0.807054 3.70249
-0.60619 -0.613866 3.55672
-0.571673 -0.268938 3.62649
-0.447062 0.384801 3.88446
-0.541835 -0.17777 3.82438
-0.464906 -1.15189 3.74122
-0.562759 -0.104145 4.01191
-0.531587 0.203646 3.96802
-0.367342 -0.981195 3.55522
-0.659743 -0.419251 3.52166
-0.41832 -0.108625 3.62672
-0.328684 0.974407 4.08265
-0.564279 -0.973464 3.65503
-0.357932 -0.0941586 4.28706
-0.0606075 -0.0927315 3.51999
-0.411251 0.117778 3.71185
-0.0473383 -0.780754 3.45265
-0.46367 -0.758415 3.59964
-0.229385 1.15643 4.22962
-0.32649 -0.600048 3.49052
-0.246287 -0.792697 3.54459
-0.148025 -0.285676 3.4986
-0.470147 -0.443834 3.47488
-0.239772 -0.0273396 3.58978
-0.360209 0.535737 3.80842
-0.340209 -0.311344 3.5592
-0.102977 1.04954 4.05079
-0.154965 0.501298 3.80033
-0.292601 0.281549 3.76463
0.0679952 -0.585967 3.5246
0.191337 -0.847773 3.4722
-0.305154 0.683983 3.89026
0.00979008 0.365515 3.73762
0.253987 -0.655979 3.51297
-0.0153231 -0.462972 3.64395
-0.0811519 -0.967208 3.72543
-0.126844 0.192495 3.63463
0.0339309 -0.981183 3.52402
-0.159449 0.852936 4.00124
-0.211398 -0.467154 3.55836
0.214148 -0.507515 3.73646
0.176845 1.02672 4.29129
0.0584218 0.854957 4.09915
-0.560911 0.0436064 3.85489
0.134663 1.2629 4.385
-0.0264195 0.646287 3.92942
0.332828 -0.859794 3.58185
0.0960991 0.172497 3.74394
0.114017 -0.0943936 3.72233
0.0237584 1.13048 4.18685
0.0537353 -0.258834 3.63377
0.214855 -0.188342 3.87147
-0.699598 -0.438126 3.60919
-0.0600507 0.000497291 3.73632
