ply
    format ascii 1.0           
    element vertex 74
    property double x           
    property double y           
    property double z           
    end_header
-0.0282154 -0.0575056 0.627005
-0.0158669 -0.231911 0.529634
-0.0116912 -0.207307 0.536596
-0.0400545 -0.0884803 0.626561
-0.00416699 -0.0837309 0.612776
-0.0264767 -0.0961893 0.611726
-0.0330302 -0.220594 0.530411
-0.0320252 -0.202284 0.538676
-0.0701867 -0.229099 0.563478
-0.029631 -0.129515 0.597581
-0.0236713 -0.249348 0.534806
-0.0368765 -0.177918 0.580819
-0.0173274 -0.180539 0.579211
-0.0437361 -0.0714573 0.635553
-0.0145939 -0.137984 0.587821
-0.0329829 -0.162583 0.582451
-0.0342261 -0.146181 0.589191
0.00255334 -0.168209 0.587963
-0.00730931 -0.0649999 0.627095
0.00365294 -0.192157 0.579033
-0.0391004 -0.192958 0.577628
-0.00681681 -0.104506 0.611344
-0.0247617 -0.196856 0.572241
-0.00932313 -0.12055 0.596404
-0.074467 -0.221112 0.582238
-0.0143882 -0.15793 0.588668
-0.0532333 -0.203732 0.572876
0.0101362 -0.0995496 0.622619
-0.0256515 -0.114285 0.60828
0.00146498 -0.1419 0.601421
-0.00486989 -0.200762 0.566026
-0.042223 -0.24184 0.542929
0.0128344 -0.123717 0.627792
-0.0701503 -0.195144 0.576377
-0.0227701 -0.0796126 0.623508
0.0111699 -0.213575 0.575725
-0.00424234 -0.225547 0.543921
-0.00933985 -0.0569741 0.646451
-0.0208334 -0.204139 0.553321
0.00702632 -0.0805143 0.632583
0.0144918 -0.19906 0.594577
-0.00644774 -0.245393 0.548087
-0.00168873 -0.219763 0.562936
0.00998106 -0.142796 0.620411
-0.000486162 -0.124063 0.613222
0.00927221 -0.17422 0.607641
0.0115923 -0.230669 0.585616
0.0103286 -0.192149 0.612491
-0.00541987 -0.27112 0.564857
0.0156851 -0.217612 0.594694
0.0129472 -0.109399 0.640102
0.00512252 -0.249595 0.589223
-0.00374087 -0.274952 0.583826
-0.00533679 -0.251348 0.567712
0.00876749 -0.260431 0.610348
-0.00558449 -0.234456 0.577219
0.0111522 -0.0975706 0.62225
-0.029342 -0.0455985 0.643458
0.00739628 -0.240984 0.605554
-0.0222334 -0.204855 0.554249
0.00971496 -0.161871 0.62264
0.00824079 -0.247991 0.625866
0.00412963 -0.228539 0.618578
-0.0162188 -0.262653 0.547169
-8.10952e-06 -0.203325 0.627593
0.00249782 -0.146812 0.640743
-0.0242004 -0.290016 0.606729
0.0103062 -0.192767 0.614049
-0.00804562 -0.190984 0.634897
0.00101244 -0.178117 0.625848
-0.000226796 -0.2065 0.606523
0.00151392 -0.0943882 0.647968
-0.0120783 -0.279017 0.601602
0.014334 -0.10936 0.641649
