ply
    format ascii 1.0           
    element vertex 71
    property double x           
    property double y           
    property double z           
    end_header
-0.00736361 -0.194953 0.436422
-0.00197965 -0.167258 0.446504
-0.0158099 -0.000754673 0.561484
-0.0251909 -0.160965 0.449823
-0.0270415 -0.181554 0.43836
-0.0716082 -0.193019 0.47562
-0.0203781 -0.0819201 0.52206
-0.0155304 -0.044208 0.54193
0.00844711 -0.0096961 0.560483
0.0160585 -0.12652 0.508249
-0.0304079 -0.136132 0.499574
-0.0345035 -0.0176707 0.568681
-0.0259138 -0.100264 0.511453
-0.00282124 -0.0909259 0.510684
0.0113181 -0.0306063 0.543119
0.00412413 -0.0717614 0.521296
-0.00750816 -0.139641 0.497705
-0.0173008 -0.215171 0.441243
-0.0252619 -0.118833 0.503224
-0.0308801 -0.0358399 0.556042
0.00756384 -0.0542645 0.539877
-0.0147238 -0.0655399 0.534948
-0.0768811 -0.186733 0.500884
0.0155553 -0.0972013 0.525673
-0.00329604 -0.11448 0.510275
-0.0337558 -0.153777 0.495599
0.0163641 -0.15336 0.496483
-0.0391315 -0.20774 0.452026
0.0280445 -0.048853 0.552266
-0.0172545 -0.158695 0.489339
-0.0104291 -0.0261898 0.556009
0.00614634 -0.162308 0.480697
0.0294941 -0.0787247 0.557124
-0.0102797 -0.233263 0.456027
0.0243954 -0.028874 0.565775
0.00258765 -0.212662 0.456833
0.019394 -0.234437 0.527138
0.00967683 -0.183989 0.475821
0.00337011 -0.24356 0.473971
0.0289539 -0.163295 0.513191
0.00643651 -0.189361 0.453324
0.0145574 -0.0771267 0.54
0.02563 -0.100215 0.547058
0.024183 -0.198867 0.500759
0.00654913 -0.00225346 0.583311
0.0235931 -0.135318 0.530206
0.0262179 -0.15593 0.533013
0.0252391 -0.178354 0.490447
0.0294843 -0.0633013 0.573467
0.0295386 -0.184673 0.512028
0.00394801 -0.220735 0.478861
0.0052386 -0.249094 0.495656
0.00450948 -0.202165 0.490795
0.0166171 -0.220915 0.503549
0.02006 -0.221686 0.546146
0.0188986 -0.212009 0.523049
0.0241784 -0.122227 0.548485
0.0201558 -0.0462836 0.581649
0.0152611 -0.198303 0.539506
-0.00857745 -0.231489 0.454693
0.0154843 -0.105486 0.570723
0.0113637 -0.169681 0.551646
0.0235131 -0.157129 0.536453
0.000405683 -0.134004 0.568205
0.018503 -0.0843431 0.574525
-0.00305284 -0.25503 0.516643
0.0134081 -0.140799 0.551178
0.0111675 -0.171917 0.526967
-0.030153 -0.267406 0.50103
0.00112805 -0.0238199 0.583655
0.00659286 -0.0676555 0.587294
