ply
    format ascii 1.0           
    element vertex 70
    property double x           
    property double y           
    property double z           
    end_header
0.131963 0.911498 3.05318
0.0347044 0.706397 3.05969
0.114093 -0.545958 2.53024
0.0864239 -0.205905 2.51916
0.203206 0.291005 2.84488
0.0748421 -0.34353 2.46914
0.133433 0.622584 2.97244
-0.213716 -0.364836 2.67368
-0.0385273 -0.364529 2.52979
0.0695471 0.239206 2.84273
0.182416 -0.429884 2.48933
0.106054 0.364697 2.88253
0.0720771 0.121421 2.8061
0.0365757 0.0118291 2.79721
-0.0392374 0.111168 2.90043
-0.0828648 -0.609109 2.6802
-0.0842828 -0.294136 2.66475
-0.20785 -0.11253 2.76439
0.286637 0.685469 2.98515
0.217791 -0.250589 2.52484
0.167855 -0.0182546 2.80697
-0.258729 -0.292548 2.80149
0.302808 0.0662839 2.87391
-0.0855987 -0.180665 2.73967
0.131076 0.479155 2.95493
-0.127826 0.0482939 2.96103
-0.00939906 -0.480365 2.5613
0.244055 0.415647 2.89306
-0.0812641 -0.0552562 2.83651
0.260002 0.541784 2.98361
0.0165818 -0.599525 2.5781
0.266149 0.847629 3.09272
0.15978 0.749284 3.05448
0.118302 -0.143739 2.7584
0.193875 0.148162 2.86295
0.0453841 0.514732 3.04585
0.297843 -0.105858 2.83133
0.0109884 -0.100044 2.79315
0.305012 0.265429 2.9464
0.369432 0.584796 3.0704
0.148463 -0.634437 2.62939
0.245349 -0.181619 2.73596
0.341237 -0.268086 2.82393
0.369557 0.418274 3.13139
0.112725 1.01816 3.17556
0.34832 0.724096 3.12919
0.228219 -0.514356 2.62956
0.256277 -0.379107 2.59256
0.364151 -0.146686 2.94782
0.261481 -0.317082 2.72833
0.290317 0.407218 3.01549
0.345667 0.274588 3.08971
0.204904 -0.683235 2.76821
0.286374 -0.558064 3.09729
0.335584 0.0434898 3.01886
0.372391 0.529251 3.20065
0.215241 -0.536952 2.77748
0.326048 -0.377281 2.90444
0.35939 -0.276891 2.9617
0.218187 -0.403891 2.83463
0.202944 -0.690308 2.91452
0.280315 -0.50705 2.93722
0.322968 -0.0787872 3.08023
0.292624 -0.425134 3.04844
0.292845 -0.45765 3.19327
0.259852 0.840558 3.08353
0.280647 -0.32314 3.12923
0.237306 0.916189 3.21667
0.33769 0.143446 3.11717
0.129506 0.906099 3.05533
