ply
    format ascii 1.0           
    element vertex 73
    property double x           
    property double y           
    property double z           
    end_header
-0.588149 1.0279 3.0425
-0.739191 -0.332973 2.87193
-0.627874 1.23486 3.29246
-0.664962 -0.378848 2.7318
-0.541987 -0.377476 3.24287
-0.573331 0.288832 3.08349
-0.579749 -0.512959 2.7857
-0.589905 0.430198 3.12733
-0.607933 0.896783 3.18897
-0.590865 0.58514 3.13113
-0.695341 -0.163514 2.75295
-0.583848 0.527999 2.9958
-0.544809 0.152929 3.09063
-0.440956 0.334718 2.82804
-0.49606 0.173741 2.93886
-0.578671 0.691573 2.99458
-0.582388 -0.0698646 3.31757
-0.530266 0.865697 3.0324
-0.554723 0.737965 3.14924
-0.505053 0.379227 2.96887
-0.442958 0.5721 2.90304
-0.543866 1.39156 3.37479
-0.415652 0.134133 2.77222
-0.442808 0.981093 2.93779
-0.516132 -0.584561 2.89366
-0.594017 -0.474107 2.9515
-0.348662 -0.0292746 2.68044
-0.303755 0.827122 2.90678
-0.506083 0.0033304 2.94918
-0.423744 -0.555791 2.75591
-0.568398 1.07127 3.21318
-0.493879 -0.00302438 2.78816
-0.561905 -0.2615 2.69023
-0.740602 -0.163322 2.91595
-0.438308 1.14503 3.01692
-0.248995 -0.532308 2.70483
-0.259469 0.156084 2.71613
-0.442852 -0.143019 2.73269
-0.269998 0.977072 2.96383
-0.432898 0.747952 2.97103
-0.289599 0.648747 2.88824
-0.213285 -0.119902 2.68604
-0.267581 0.374311 2.81981
-0.201618 0.520983 2.87412
-0.549315 1.22098 3.13187
0.0657082 -0.255284 2.72494
-0.298841 -0.373216 2.73959
-0.463814 -0.403713 2.7072
-0.0890103 -0.489573 2.73561
-0.128907 -0.261988 2.70906
-0.287888 -0.208626 2.79221
-0.192917 0.0216556 2.68903
-0.324781 0.213847 2.83486
-0.0407596 -0.130482 2.74652
-0.446018 1.33798 3.19878
0.00700289 0.00699996 2.81404
0.134523 -0.10899 2.77859
-0.602372 -0.109057 2.85623
-0.141214 0.691941 2.98898
-0.150225 0.258923 2.80862
0.0478594 -0.472309 2.82481
-0.190944 0.84011 3.01377
-0.0268759 0.209941 2.90007
0.105125 -0.574934 2.92635
-0.174126 0.112466 2.87025
-0.074069 0.469008 3.05521
-0.18156 0.948444 3.09354
-0.13027 0.389042 2.92369
0.132659 -0.447793 3.07579
-0.052482 -0.67727 2.98307
-0.0275042 0.311387 2.9813
0.0742942 -0.379833 2.94341
-0.142505 0.589632 3.13952
