ply
    format ascii 1.0           
    element vertex 64
    property double x           
    property double y           
    property double z           
    end_header
0.0115869 -0.217655 0.691642
-0.0130953 -0.114363 0.738983
-0.000676693 -0.102328 0.757359
-0.0134919 -0.24692 0.674734
-0.0214101 -0.159701 0.709761
0.0121097 -0.173553 0.709414
-0.0147007 -0.206894 0.681033
-0.00331995 -0.178717 0.701289
-0.000852275 -0.13861 0.730809
-0.0264193 -0.214801 0.670195
-0.0191213 -0.13095 0.729659
-0.000993376 -0.188226 0.694159
-0.0252025 -0.233135 0.674204
0.00293686 -0.123021 0.740603
0.000733141 -0.203928 0.696686
-0.0110018 -0.229217 0.678906
-0.0252542 -0.145697 0.719028
-0.00275856 -0.164981 0.711301
0.0288616 -0.197791 0.721418
-0.0196455 -0.199962 0.700127
-0.0012249 -0.241878 0.684587
0.0108696 -0.193061 0.708975
-0.0069036 -0.150428 0.719124
0.0112742 -0.145735 0.744742
0.0342654 -0.217395 0.714874
0.0135914 -0.249513 0.698325
-0.00623995 -0.219363 0.689
0.00945221 -0.23246 0.691976
0.012177 -0.268149 0.705482
0.0180609 -0.209329 0.710569
-0.000663056 -0.258917 0.690074
-0.0164005 -0.0903239 0.753434
-0.0297405 -0.174352 0.709891
0.026473 -0.215833 0.701304
0.0149186 -0.1665 0.725654
0.0201262 -0.256981 0.71899
0.0209525 -0.182603 0.721244
0.0244547 -0.231598 0.696904
0.0253385 -0.238143 0.711495
0.013643 -0.273392 0.724622
0.0106911 -0.273866 0.747254
0.00267689 -0.126308 0.759498
-0.00375406 -0.0927199 0.772367
0.0137137 -0.236269 0.752438
0.0165284 -0.258878 0.738213
0.0224628 -0.242794 0.727921
0.00641082 -0.287161 0.736882
0.0175278 -0.179159 0.738813
0.00151833 -0.291198 0.753982
0.00339222 -0.28828 0.72048
0.00850032 -0.215071 0.752732
0.0246881 -0.22644 0.725992
0.0268082 -0.210958 0.729419
0.0091605 -0.164113 0.74512
0.0148894 -0.219953 0.73924
-0.00285146 -0.170276 0.75789
0.00224038 -0.227859 0.76476
-0.0216723 -0.21443 0.670588
0.0202519 -0.197848 0.738544
-0.00174876 -0.148169 0.753232
-0.00375585 -0.257293 0.748136
-0.0178958 -0.292608 0.726485
-0.00773316 -0.0975454 0.754427
0.00943982 -0.162892 0.724537
