ply
    format ascii 1.0           
    element vertex 68
    property double x           
    property double y           
    property double z           
    end_header
0.00528237 -0.0212844 0.478783
-0.0425239 -0.105508 0.407123
-0.0323273 -0.120338 0.406059
-0.00136341 -0.0939823 0.428254
-0.0250597 -0.0204214 0.48746
-0.0256075 -0.10309 0.414192
-0.0102755 -0.0671045 0.443045
0.00767417 -0.10891 0.401281
-0.00234444 -0.0391997 0.455083
0.00491176 -0.135368 0.391351
-0.00520958 -0.119771 0.394228
-0.0264366 -0.175176 0.404274
-0.00499856 -0.0594817 0.460744
0.00778037 -0.153611 0.394775
-0.0125148 -0.149858 0.393474
-0.070139 -0.145769 0.435344
-0.00530615 -0.16881 0.39703
0.00725971 -0.0704483 0.451008
0.0157125 -0.0995101 0.436924
-0.0129153 -0.0851199 0.439182
-0.0285901 -0.0915318 0.430878
-0.0432755 -0.0959821 0.42075
0.0155002 -0.0620126 0.46355
-0.0136436 -0.115526 0.412602
0.0122831 -0.169232 0.402095
0.0256566 -0.121498 0.438911
0.0161299 -0.130546 0.405864
0.0347643 -0.115234 0.451819
0.00587483 -0.0882524 0.447328
0.0189466 -0.15477 0.409734
0.0346743 -0.145304 0.462496
0.0148783 -0.0816448 0.462746
0.0252153 -0.160841 0.454549
0.0103165 -0.127284 0.429902
0.0205576 -0.140397 0.42084
0.0183369 -0.188576 0.470376
0.00941576 -0.19391 0.448574
0.0195882 -0.0730521 0.478726
0.037569 -0.128179 0.464478
0.0192931 -0.166903 0.42327
0.0219417 -0.138438 0.438573
0.0153189 -0.175989 0.456627
0.0125779 -0.0370794 0.473675
0.0113357 -0.179868 0.416057
0.026163 -0.153755 0.433363
0.0233831 -0.172997 0.473648
0.0101993 -0.0452827 0.489752
0.00474185 -0.111435 0.418487
0.00212185 -0.0329022 0.501263
0.0190803 -0.0913 0.477768
0.0151968 -0.166444 0.441168
0.00247118 -0.180266 0.499258
0.00288185 -0.147263 0.497439
0.0135647 -0.165567 0.490318
0.00547828 -0.0665421 0.495717
0.0052608 -0.163867 0.506097
0.0107258 -0.109471 0.482161
-0.0128175 0.000552253 0.487605
0.00256768 -0.176955 0.440183
0.0025485 -0.185634 0.427972
-0.000244134 -0.123626 0.490338
0.0102215 -0.178722 0.414639
0.00756595 -0.179938 0.483098
-0.00253488 -0.192259 0.481436
0.00503329 -0.19457 0.464115
0.0179505 -0.125783 0.475748
-0.0132395 -0.0850047 0.490206
-0.00493339 -0.0512471 0.495574
