ply
    format ascii 1.0           
    element vertex 74
    property double x           
    property double y           
    property double z           
    end_header
0.121174 0.30156 1.895
-0.0564561 -0.33293 1.58612
0.0525276 -0.100226 1.69079
0.0272657 -0.322756 1.51564
-0.0566727 -0.462961 1.86126
0.0463415 0.183045 1.81424
-0.145329 -0.224546 1.71534
-0.0232014 -0.259169 1.55634
0.023911 0.030332 1.78314
0.0731209 -0.402102 1.51629
0.0438212 0.403086 1.99214
-0.0103893 -0.410605 1.56534
-0.0895191 -0.287777 1.67813
0.11454 0.0428475 1.76164
-0.0655924 -0.186887 1.69938
-0.106492 -0.443075 1.91846
0.0273736 -0.185888 1.55494
0.0549244 -0.488437 1.55767
-0.140311 -0.2928 1.77685
0.220367 -0.188287 1.64593
0.146703 -0.0973939 1.67593
-0.0429263 -0.119778 1.78032
0.0299378 -0.0669471 1.77634
-0.121251 -0.168368 1.77878
-0.0308054 -0.503932 1.70843
0.0826575 0.0915071 1.83689
0.00707228 -0.546596 1.64495
-0.0663751 -0.364181 1.73801
-0.0267385 -0.0593099 1.86179
0.102101 -0.273837 1.5436
0.166964 0.104649 1.7904
0.155183 0.22611 1.84892
0.280338 -0.13596 1.67181
0.132683 -0.461595 1.52548
0.157078 -0.379309 1.54426
-0.0304222 -0.392996 1.6363
0.125264 -0.0447824 1.74812
0.192974 0.0104905 1.78338
0.00150006 -0.236702 1.66622
0.354605 -0.265754 1.70454
0.387881 -0.484705 1.76935
0.323027 -0.357873 1.69759
0.347164 -0.18055 1.70655
0.175572 -0.300037 1.58686
0.144536 -0.242657 1.66047
0.230993 -0.272323 1.65253
0.217559 -0.42319 1.5917
0.266164 -0.0184222 1.82731
0.29905 -0.540694 1.70672
0.110772 -0.536468 1.61696
0.240868 0.0724966 1.8343
0.0301806 0.289949 2.01572
0.251398 -0.344123 1.61445
0.320215 -0.44164 1.72408
0.209682 -0.08538 1.78591
0.185862 -0.501548 1.57715
0.391477 -0.4003 1.77145
0.0695975 -0.185737 1.63265
0.042546 0.402557 1.99124
0.274862 -0.289453 1.72284
0.201006 0.202085 1.91906
0.33292 -0.534424 1.7841
0.00715963 -0.551481 1.64533
0.257053 -0.412383 1.67391
0.417311 -0.351816 1.9535
0.419445 -0.436352 1.92044
0.352634 -0.326395 1.79762
0.400047 -0.363957 1.86765
0.297251 -0.123985 1.74419
0.188993 0.263503 1.99126
0.355403 -0.284015 1.93909
0.225125 -0.478061 1.70575
0.200975 -0.529062 1.65456
0.232212 0.103896 1.94614
