ply
    format ascii 1.0           
    element vertex 73
    property double x           
    property double y           
    property double z           
    end_header
-0.125226 0.721915 1.93718
-0.104622 0.597924 1.97811
-0.0813339 0.603927 1.80186
-0.342213 -0.048064 1.80506
-0.303246 -0.176185 1.63573
-0.184059 0.114248 1.6635
-0.28987 -0.117988 1.74555
-0.152965 -0.25732 2.00488
-0.259612 -0.164461 1.51861
-0.299641 -0.0938606 1.58176
-0.176009 0.449477 1.77232
-0.137093 -0.279978 1.91793
-0.280162 0.00318862 1.74334
-0.178719 -0.339951 1.55651
-0.187361 0.270004 1.76276
-0.25363 -0.260075 1.59467
-0.263086 -0.00591175 1.54945
-0.219459 -0.190071 1.80086
-0.199458 -0.247621 1.49863
-0.295683 0.0276607 1.85064
-0.0989242 0.126928 1.59772
-0.109791 0.294125 1.6935
-0.166373 -0.350176 1.76604
-0.16721 -0.401838 1.67436
-0.121234 -0.305173 1.48329
-0.178438 0.175808 1.8775
-0.227791 0.0931354 1.80662
-0.166255 0.162185 1.76042
-0.110703 0.354513 1.78233
0.0394461 0.10227 1.52369
-0.058437 0.517973 1.74608
-0.179664 -0.0951369 1.50205
-0.223718 -0.0479852 1.67557
-0.0241938 0.0310192 1.53373
-0.0903604 0.195516 1.68009
-0.105121 -0.206085 1.4787
-0.0151662 0.271189 1.6751
0.133025 0.066802 1.52509
0.154542 -0.0291698 1.5281
-0.0550962 0.374318 1.68852
0.137271 -0.136013 1.54003
-0.0797548 -0.107538 1.50606
0.262798 -0.25955 1.58358
0.15308 -0.344104 1.57694
0.00547975 -0.060514 1.5399
-0.0110138 -0.241212 1.49808
-0.0360714 -0.33495 1.50602
-0.0817352 -0.378611 1.58876
-0.0815482 -0.0363817 1.59523
0.164391 -0.228265 1.57493
0.0193765 -0.14324 1.49784
0.0204374 0.166073 1.67324
0.0848335 0.255484 1.68142
0.252832 -0.164469 1.57916
0.0481052 0.35456 1.69504
-0.181094 0.0123959 1.60311
0.0297616 0.506843 1.79384
0.043742 0.584517 1.86529
0.225544 -0.323423 1.63424
0.0678733 -0.211455 1.56077
-0.127366 0.722555 1.94047
0.0870421 -0.0652148 1.58439
0.212298 -0.0842474 1.6252
0.283767 -0.0164689 1.75483
0.304814 -0.108466 1.66493
0.0668585 -0.287424 1.60947
0.0933836 0.403439 1.80509
0.138272 0.15841 1.71034
0.0913595 0.1327 1.59405
0.0274649 -0.351505 1.57383
0.296323 -0.20354 1.66157
0.190186 0.0904006 1.77412
0.365579 -0.180842 1.71849
