ply
    format ascii 1.0           
    element vertex 69
    property double x           
    property double y           
    property double z           
    end_header
-0.133337 -0.130145 0.661011
-0.0681313 -0.0798535 0.643683
-0.118547 -0.146279 0.645937
-0.0692536 -0.0614313 0.659045
-0.0867388 -0.131508 0.645807
-0.0938352 -0.155084 0.642501
-0.0920718 -0.084366 0.652351
-0.0956385 -0.042489 0.697308
-0.0783782 0.0225747 0.720184
-0.0804564 -0.00542341 0.706807
-0.122184 -0.0848879 0.687324
-0.0464665 -0.135889 0.662501
-0.0659423 -0.151398 0.647187
-0.0482387 -0.0404679 0.707503
-0.107939 -0.00231319 0.72852
-0.0948298 -0.110489 0.654558
-0.0768965 0.0543266 0.757816
-0.0919724 -0.0640625 0.664406
-0.0733473 -0.101631 0.651535
-0.104764 0.0264891 0.736208
-0.0554613 -0.0145906 0.705368
-0.10343 -0.0241238 0.720531
-0.103579 0.0471548 0.758084
-0.00896154 -0.127272 0.708173
-0.106231 -0.097282 0.669418
-0.0780814 -0.037376 0.696565
-0.0444487 -0.159031 0.661202
-0.108587 -0.127137 0.656038
-0.0471454 -0.07261 0.6644
-0.02541 -0.141873 0.677045
-0.0553114 0.0229341 0.73484
-0.0702229 -0.121343 0.662259
-0.0506805 -0.0939955 0.655248
-0.0182746 -0.102554 0.728026
-0.0440784 -0.00254287 0.737508
-0.0811733 0.0394205 0.737665
-0.0458125 -0.113167 0.668459
-0.0312893 -0.165923 0.678903
-0.0286977 -0.117463 0.712461
-0.0760419 -0.170643 0.638625
-0.0641014 -0.175455 0.658098
-0.0565945 -0.0560618 0.68702
-0.039507 -0.0712767 0.692039
-0.0394119 -0.0928063 0.71522
-0.0690749 0.0486673 0.782528
-0.0436394 -0.0529573 0.729353
-0.0407572 -0.128759 0.686225
-0.0409606 -0.107666 0.693483
-0.0271162 -0.136006 0.702006
-0.0440241 -0.0919563 0.677991
-0.00595425 -0.142879 0.723374
-0.0523326 -0.0194581 0.76313
-0.0207347 -0.157522 0.694788
-0.0538321 -0.0252693 0.72999
-0.0634073 -0.00126939 0.722439
-0.0104119 -0.126322 0.730126
-0.0189311 -0.156624 0.716285
-0.0521445 -0.0420469 0.748551
-0.0668245 0.0110161 0.775341
-0.0606364 0.0288764 0.754854
-0.0237674 -0.113109 0.750866
-0.0516573 -0.0705322 0.712504
-0.0390192 -0.130244 0.68571
-0.0179568 -0.134199 0.747051
-0.0603753 -0.177914 0.699485
-0.0563149 -0.170131 0.719626
-0.0641284 -0.10227 0.649663
-0.0586473 0.00164688 0.752422
-0.0189708 -0.149142 0.735739
