ply
    format ascii 1.0           
    element vertex 64
    property double x           
    property double y           
    property double z           
    end_header
-0.0337666 -0.236467 0.624954
-0.0805529 -0.150701 0.714347
-0.0841459 -0.106805 0.738739
-0.0504442 -0.205369 0.637952
-0.0633932 -0.0791441 0.73304
-0.0796264 -0.0156828 0.788177
-0.0599333 -0.12367 0.70494
-0.0714059 -0.18948 0.654491
-0.0156912 -0.213991 0.623924
-0.0479825 -0.17514 0.639058
-0.0501099 -0.154624 0.65805
-0.0946186 -0.26338 0.724976
-0.0445684 -0.0429309 0.73279
-0.0624095 -0.102792 0.720419
-0.0590103 -0.00637794 0.766041
-0.022288 -0.189755 0.64078
-0.071336 -0.168062 0.676021
-0.0834599 -0.239258 0.685573
-0.0453605 -0.233862 0.653811
-0.03585 -0.0715903 0.730342
-0.0552363 -0.256844 0.674397
-0.0376319 -0.105979 0.707699
-0.00622416 -0.25089 0.627075
-0.0816466 -0.0823964 0.750682
-0.0414023 -0.141505 0.688352
-0.0830544 -0.26589 0.685692
0.0414313 -0.208019 0.666298
-0.0763034 -0.0690138 0.782242
-0.0254354 -0.0274273 0.746955
-0.0211513 -0.164145 0.650787
-0.0223754 -0.0912584 0.72382
-0.0120149 -0.138728 0.689085
0.0402004 -0.239624 0.65922
-0.0186764 -0.0551944 0.745844
0.0204519 -0.248994 0.639688
0.00297351 -0.191747 0.666075
-0.00299841 -0.159598 0.677792
-0.0124004 -0.11895 0.721676
-0.0293566 -0.15368 0.674149
-0.0723053 -0.0407747 0.741889
0.013747 -0.221197 0.661434
0.002254 -0.227409 0.638277
-0.0311431 -0.132356 0.706782
0.0286014 -0.269331 0.662274
0.0548682 -0.22981 0.683499
-0.00418352 -0.130898 0.747128
-0.057774 -0.0081038 0.76727
-0.0137303 -0.0423637 0.769151
0.0239984 -0.19535 0.68719
-0.00465005 -0.294793 0.664003
-0.0108397 -0.103009 0.746203
-0.0134123 -0.0628491 0.786136
-0.0141307 -0.0877799 0.778725
-0.0254642 -0.0278459 0.747455
0.00207589 -0.270239 0.647805
0.00281444 -0.162711 0.710121
0.0413539 -0.257968 0.6882
0.00127413 -0.154053 0.73728
-0.0113724 -0.142481 0.711005
-0.0275312 -0.0204211 0.77142
-0.00542758 -0.178519 0.749138
0.00131594 -0.187551 0.721784
0.0557307 -0.202708 0.695536
-0.00051625 -0.219361 0.763313
