ply
    format ascii 1.0           
    element vertex 76
    property double x           
    property double y           
    property double z           
    end_header
-0.176814 -0.486319 1.07474
-0.0996281 -0.152315 1.22892
-0.128076 -0.139978 1.26245
-0.13894 -0.265108 1.16427
-0.269884 -0.422895 1.11531
-0.0970999 -0.0986541 1.25219
-0.144906 -0.180506 1.28065
-0.162642 -0.211611 1.23579
-0.229108 -0.402582 1.10547
-0.155653 -0.337462 1.10922
-0.138981 -0.300137 1.13622
-0.175528 -0.352817 1.1527
-0.115756 -0.0705602 1.28078
-0.0722164 -0.0611418 1.26906
-0.113852 -0.2275 1.17023
-0.014678 -0.36802 1.12265
-0.184412 -0.386372 1.10601
-0.191057 -0.418497 1.07846
-0.164743 -0.293357 1.20782
-0.125574 -0.204042 1.20326
-0.106461 -0.329769 1.10689
-0.14002 -0.456996 1.07374
-0.101585 -0.0419791 1.30881
-0.144679 -0.246143 1.20558
-0.0934721 -0.258286 1.14529
-0.250569 -0.402888 1.15219
-0.208972 -0.383616 1.14988
-0.00650651 -0.414771 1.14008
-0.15684 -0.336926 1.19214
-0.0257149 -0.504875 1.11994
-0.133661 -0.109737 1.29187
-0.206959 -0.488464 1.12001
-0.145623 -0.413893 1.09244
-0.106434 -0.441046 1.09782
-0.101414 -0.485084 1.07966
-0.0770217 -0.202204 1.21225
-0.0708619 -0.417742 1.13671
-0.0872596 -0.306276 1.14041
-0.131085 -0.379235 1.11793
-0.046418 -0.545161 1.13115
-0.0209756 -0.315343 1.17103
-0.0306504 -0.460925 1.13538
-0.0850118 -0.370181 1.1276
-0.0626311 -0.0387342 1.31298
0.0124325 -0.335314 1.14795
0.015323 -0.456792 1.15804
-0.0517219 -0.33899 1.13916
-0.222249 -0.447759 1.08826
-0.179183 -0.453875 1.09614
-0.0747172 -0.45877 1.11713
-0.0641094 -0.232774 1.17792
-0.0564001 -0.280225 1.16718
0.0312617 -0.384057 1.15902
-0.0304342 -0.268335 1.20824
-0.0318274 -0.222566 1.21499
-0.06862 -0.156194 1.26596
-0.0723398 -0.508363 1.11184
0.0408516 -0.490058 1.18622
0.00120945 -0.500686 1.15632
-0.0590015 -0.126564 1.34138
0.0324985 -0.429951 1.1928
-0.0516237 -0.185989 1.29585
0.0221589 -0.332184 1.205
-0.132538 -0.515108 1.10213
-0.0416215 -0.0810115 1.33756
-0.0354977 -0.0201071 1.36896
0.0465179 -0.465492 1.2268
0.0131294 -0.530419 1.19908
-0.0538543 -0.0587997 1.37771
-0.223149 -0.451963 1.09337
-0.0177321 -0.54325 1.16588
-0.0787301 -0.164919 1.33046
-0.0823584 -0.00241064 1.3393
-0.0344027 -0.276749 1.25245
-0.0611517 -0.232229 1.29748
0.0380703 -0.505188 1.23041
