ply
    format ascii 1.0           
    element vertex 70
    property double x           
    property double y           
    property double z           
    end_header
-0.0901521 -0.157285 0.883643
-0.121319 -0.0884856 0.873199
-0.152634 -0.0993645 0.866875
-0.0660932 -0.0436925 0.888738
-0.0567567 -0.0109799 0.905216
-0.0914836 -0.107286 0.870633
-0.0543537 0.0735724 0.93575
-0.0338271 -0.0401926 0.902289
-0.0389216 0.117524 0.952303
-0.0630696 -0.137254 0.891049
-0.0852348 0.110445 0.975101
-0.0649072 0.13449 0.961245
-0.0911397 -0.0776924 0.886795
0.0157413 -0.0673046 0.946597
-0.0594206 0.0203721 0.916179
-0.0900832 0.0777772 0.949004
0.0301484 -0.0392547 0.966966
-0.025917 0.0190821 0.919008
-0.0408154 0.0478173 0.922957
-0.0671782 -0.101871 0.8951
-0.0739534 0.166893 0.977614
-0.0226485 0.190473 0.969644
-0.119351 -0.126138 0.874208
-0.0554409 0.191059 0.970992
-0.0124497 0.0440837 0.944835
-0.0303168 -0.0967799 0.946855
-0.0075217 -0.0410372 0.941647
0.0103469 -0.0960159 0.968529
-0.0422817 -0.156487 0.91135
-0.0074203 -0.164317 0.964377
-0.0108629 -0.129474 0.966744
-0.028307 -0.016043 0.926004
-0.0226632 0.218875 0.996326
-0.0473236 -0.121045 0.915963
-0.0314793 -0.0637999 0.929656
-0.0599156 -0.0719096 0.90996
-0.116097 -0.0674614 0.901488
-0.075251 -0.17227 0.922401
2.521e-05 -0.0164892 0.974996
0.000520063 0.0591294 0.976059
0.0340014 -0.0717352 0.986104
-0.0383337 0.160659 0.956952
-0.0117132 0.00807619 0.948782
-0.0336569 -0.130486 0.940576
-0.037317 0.165211 1.03434
0.0208793 -0.0955741 1.01676
0.0153623 -0.122106 0.993527
-0.0297379 -0.190272 0.972552
-0.0370604 -0.167559 0.946035
-0.0283017 0.108715 1.01665
-0.0199958 0.195392 1.02686
-0.0279388 0.122444 0.986219
0.0250001 -0.0235766 1.00393
-0.00347675 0.0257689 0.980706
0.0214137 -0.140076 1.02416
-0.0894072 -0.128868 0.889101
-0.0159085 0.246028 1.0401
-0.0249002 0.0763685 0.957855
0.0187394 -0.113354 1.04841
-0.00121424 -0.15342 0.996789
-0.00507295 -0.16431 1.03163
-0.018676 -0.1815 1.00347
-0.0372768 0.253722 1.00386
0.0304723 -0.0393812 0.965113
-0.0352031 0.224243 1.04805
-0.0484715 0.135199 1.02741
-0.0346047 0.075703 1.02249
-0.0338159 0.16458 1.03218
-0.0157504 0.0305326 1.00928
0.00598299 -0.139721 1.05533
