ply
    format ascii 1.0           
    element vertex 71
    property double x           
    property double y           
    property double z           
    end_header
-0.00176415 -0.169668 1.80889
-0.146525 -0.328213 1.80803
-0.231718 -0.380396 1.82318
0.0286522 -0.0746661 1.86306
-0.0622313 -0.363535 1.7533
-0.0415742 0.143972 2.06732
-0.0202018 -0.509972 1.76087
0.0344076 0.157802 1.9805
0.0669277 0.0988528 1.92375
0.108177 0.509851 2.10552
0.297914 -0.203109 1.84931
0.0519828 -0.437679 1.75862
0.0230923 0.0112372 1.9141
-0.00901338 0.232842 2.15975
0.0139163 0.319486 2.10564
0.0781911 0.292102 2.03316
0.0634808 0.412807 2.07311
0.00240832 0.403098 2.18423
0.0989935 -0.143279 1.80642
-0.0530946 -0.283072 1.8093
0.0481703 0.562174 2.18473
0.0254725 0.483795 2.15426
0.140101 -0.486482 1.77485
0.114242 0.0270041 1.87494
0.0308573 -0.338964 1.79176
0.347859 -0.118418 1.89849
-0.0414943 -0.199474 1.9051
0.326333 -0.295637 1.89574
-0.123426 -0.434529 1.78645
-0.193771 -0.325323 1.90718
0.192153 -0.318224 1.89138
0.282643 -0.404359 1.90029
0.304697 -0.502223 1.87124
0.219829 -0.143119 1.88329
0.152271 -0.218559 1.86062
0.267999 -0.594434 1.90501
-0.0838267 -0.512497 1.85855
0.0553452 -0.254097 1.84026
0.118537 -0.38935 1.81242
0.141113 0.180838 2.00729
0.132451 -0.078352 1.87605
-0.174016 -0.443041 1.87302
0.0795597 -0.551838 1.83583
-0.015004 -0.0544502 2.07088
0.272262 -0.0766056 1.96632
0.190486 -0.414576 1.85711
0.39984 -0.215174 1.92719
0.130274 0.57898 2.19173
0.195176 -0.00421903 1.93069
0.248427 0.0416323 2.01761
0.172737 0.100864 1.9384
0.205896 -0.525611 1.85542
0.383914 -0.375233 1.94189
0.145267 0.303075 2.12029
0.238348 0.143058 2.02018
0.415122 -0.302093 2.0065
0.185334 0.504794 2.25662
0.191706 0.252458 2.1868
0.447703 -0.43152 2.00538
-0.0272433 -0.434083 1.79859
0.462181 -0.364469 2.08051
0.357827 -0.475747 1.95451
0.398255 -0.521864 2.04861
0.334441 -0.571196 1.97608
0.164424 0.405637 2.27362
0.379262 -0.088652 2.01188
0.0328804 0.483899 2.11892
0.0673794 0.0972425 1.91795
0.189999 0.148972 2.19545
0.00310732 -0.443723 1.78868
0.194446 0.645909 2.30719
