ply
    format ascii 1.0           
    element vertex 72
    property double x           
    property double y           
    property double z           
    end_header
0.16452 -0.69438 1.89534
0.132407 -0.677983 1.92406
0.161665 -0.634666 1.90229
0.169375 -0.522032 1.96307
0.416594 -0.687377 2.55254
0.142164 -0.665733 1.91105
0.153934 -0.669727 1.89672
0.165964 -0.603203 1.91949
0.180999 -0.515736 1.94967
0.175727 -0.554744 1.93795
0.171719 -0.587124 1.91875
0.16854 -0.577785 1.93199
0.177077 -0.628223 1.89672
0.212751 -0.6336 1.89195
0.175086 -0.508922 1.97399
0.166377 -0.617919 1.90985
0.156077 -0.656039 1.90618
0.777163 -0.774767 3.39206
0.178671 -0.598094 1.90746
-7.14869 5.08556 -16.0294
0.174099 -0.680202 1.89002
0.221508 -0.617936 1.89788
0.181308 -0.541083 2.00426
0.222161 -0.650123 1.9003
0.0803473 -0.627786 1.75351
0.170191 -0.663751 1.89726
0.186272 -0.670088 1.89531
0.189402 -0.584576 1.9154
0.189805 -0.504773 1.97318
0.189948 -0.640341 1.9024
0.18621 -0.572204 1.93009
0.200204 -0.657251 1.90629
0.174609 -0.648439 1.90447
0.219718 -0.703774 1.90402
0.190454 -0.687038 1.88845
0.217528 -0.670409 1.90195
0.184795 -0.615858 1.90603
0.212439 -0.613717 1.91639
0.236013 -0.663164 1.90379
0.20384 -0.575488 1.92533
0.199903 -0.625292 1.90245
0.195478 -0.602064 1.91211
0.201512 -0.673302 1.89894
0.235853 -0.633516 1.89963
0.208921 -0.5932 1.92315
0.234059 -0.612054 1.91555
0.22451 -0.685907 1.89234
0.247294 -0.648298 1.91048
0.173906 -0.53354 1.94548
0.19198 -0.55124 1.94609
0.207654 -0.691665 1.89629
0.256206 -0.67048 1.90632
0.203801 -0.534719 1.97068
0.239307 -0.680021 1.90198
0.204551 -0.515842 1.96704
0.262995 -0.658018 1.91796
0.206733 -0.558717 1.95395
0.254647 -0.686773 1.91302
0.238825 -0.697699 1.9092
0.203592 -0.506153 1.98338
0.199592 -0.551694 1.96957
0.188816 -0.504166 1.96079
0.181986 -0.490887 1.97233
0.206346 -0.576711 1.95841
0.201463 -0.490628 1.98024
0.213083 -0.611423 1.91362
0.22814 -0.65081 1.96729
0.214322 -0.594185 1.9407
0.262099 -0.675114 1.92524
0.23751 -0.626095 1.92413
0.212657 -0.59416 1.95769
0.216783 -0.639209 1.9634
