ply
    format ascii 1.0           
    element vertex 69
    property double x           
    property double y           
    property double z           
    end_header
0.115097 -0.251468 0.924338
0.227725 -0.247394 1.00348
0.0609416 -0.394179 0.906757
0.150598 -0.204453 0.930787
0.153759 -0.105466 0.968661
0.131988 -0.325648 0.988723
0.122392 0.0630713 1.06302
0.0229341 -0.357266 0.881606
-0.0247851 -0.278301 0.89887
0.144494 -0.042514 1.00938
0.206896 -0.301665 0.99497
0.0777834 -0.18426 0.91463
0.092101 -0.328374 0.929601
0.0466902 -0.310913 0.927209
0.177115 -0.174016 0.955327
0.0193075 -0.308879 0.888645
0.154102 0.0035284 1.03144
0.175015 -0.265657 0.979182
0.138934 -0.149732 0.956868
0.182208 -0.21875 0.969533
0.100329 -0.114384 0.959852
0.167866 -0.354731 1.01795
0.0431959 -0.211094 0.908238
0.0828443 -0.276683 0.939901
0.109891 -0.206011 0.929326
0.138101 0.0935172 1.09321
-0.0231163 -0.327337 0.882623
0.0864701 -0.161291 0.954345
0.171412 -0.0701691 1.02676
0.179414 0.00707747 1.07273
0.0379924 -0.248236 0.944473
0.178288 -0.140031 0.985791
0.00403113 -0.289704 0.940831
0.186262 -0.108923 1.01947
0.23143 -0.296038 1.05242
0.135957 -0.235272 0.971448
0.192591 -0.152275 1.03262
0.119907 -0.0804733 0.983823
0.176857 -0.377952 1.07528
0.171447 -0.0380326 1.05436
0.141891 -0.393987 1.04283
0.187976 -0.227155 1.01388
0.179491 -0.0293162 1.10125
0.134611 0.0761049 1.13313
0.167151 0.0429142 1.11851
0.123697 0.122394 1.14743
0.169742 -0.115045 1.10598
0.173318 -0.182417 1.0021
0.16304 -0.0712088 1.0934
0.179571 -0.192449 1.05281
0.216094 -0.24821 1.05191
0.174363 -0.152419 1.0783
0.169787 -0.105312 1.06012
0.150547 -0.341007 1.13728
0.122937 0.0289051 1.14199
0.181467 -0.33037 1.0757
0.179039 -0.310715 1.03188
0.174959 -0.304639 1.11556
0.152877 -0.19812 1.08657
0.135934 -0.212987 1.11557
0.138126 -0.15918 1.10629
0.144483 -0.254348 1.10273
0.121477 0.123257 1.1507
0.104151 -0.418403 1.06935
0.14357 -0.0243399 1.12952
0.143173 -0.384406 1.10159
0.187213 -0.226188 1.019
0.189688 -0.28165 1.07393
0.117604 -0.063454 1.119
