ply
    format ascii 1.0           
    element vertex 70
    property double x           
    property double y           
    property double z           
    end_header
0.0581241 -0.143666 1.06356
0.0417056 -0.418256 1.05186
0.121357 0.176391 1.25603
0.110336 -0.230771 1.0713
-0.00920098 -0.36963 1.02087
0.261942 -0.222691 1.16621
0.155603 -0.168185 1.07798
0.149067 0.0410565 1.18296
0.0702908 -0.264093 1.09437
0.15926 -0.0399254 1.12868
-0.0143018 -0.307546 1.03125
0.138356 -0.327969 1.15353
-0.0739927 -0.269069 1.04992
0.191505 -0.128004 1.10774
-0.072219 -0.333367 1.02826
0.0887197 -0.0530135 1.12233
0.161086 0.101131 1.21286
0.082395 -0.330944 1.07961
0.236693 -0.293899 1.15575
0.191303 -0.247948 1.13949
0.139421 -0.098217 1.1148
0.199118 -0.186898 1.12647
0.0135033 -0.179705 1.05724
0.189019 -0.365268 1.18771
0.023587 -0.309287 1.07853
0.0954664 0.255359 1.32263
0.101726 -0.172163 1.07925
0.142959 0.216957 1.29424
0.185662 0.00558852 1.20333
0.0721988 -0.113643 1.11426
-0.120235 -0.291342 1.05319
0.0668967 0.0114502 1.17953
0.115914 -0.00835413 1.14986
0.194402 -0.0845953 1.14799
0.198205 0.105955 1.26313
0.0103011 -0.228923 1.10421
0.206188 -0.0441267 1.19157
0.271765 -0.287034 1.2292
0.139069 -0.21025 1.1337
0.0982748 0.0511477 1.19985
0.216118 -0.100494 1.20781
0.205734 -0.395735 1.26127
0.187153 0.0472822 1.23941
0.184263 0.151555 1.32426
0.151572 -0.414142 1.23098
0.21396 -0.197118 1.17939
0.140192 0.194523 1.34802
0.18993 -0.139699 1.1699
0.19227 -0.053908 1.30594
0.181508 0.00353682 1.28961
0.250852 -0.225023 1.22969
0.204298 -0.153631 1.2344
0.201535 0.05808 1.29987
0.197497 -0.101876 1.26861
0.173871 -0.349046 1.34467
0.187713 -0.0402667 1.24628
0.208481 -0.333158 1.26253
0.162417 -0.416953 1.22191
0.204177 -0.300877 1.31573
0.202942 -0.30615 1.2055
0.128589 0.132547 1.3566
0.153592 -0.181745 1.31768
0.152694 -0.111549 1.30785
0.171847 -0.162323 1.27942
0.110454 -0.451184 1.25818
0.16464 -0.405917 1.29824
0.158892 -0.235428 1.30112
0.155889 0.0631342 1.33947
0.125688 0.254208 1.36998
0.21917 -0.269046 1.25959
