ply
    format ascii 1.0           
    element vertex 75
    property double x           
    property double y           
    property double z           
    end_header
-0.0500966 -0.142481 0.735209
-0.0468753 -0.119193 0.743565
-0.0435837 -0.166051 0.720043
-0.0509098 -0.258891 0.678783
-0.0344195 -0.132943 0.73655
-0.0331037 -0.264778 0.679709
-0.000520862 -0.19818 0.677977
-0.0209665 -0.201261 0.683248
-0.0160809 -0.271372 0.681667
-0.0251106 -0.285868 0.678406
-0.0537132 -0.244962 0.689505
0.0068218 -0.185735 0.686718
-0.0127256 -0.23208 0.67515
-0.0282311 -0.242373 0.686142
0.00666239 -0.214311 0.681608
-0.0111025 -0.215986 0.681689
0.015931 -0.200597 0.688423
-0.0107808 -0.293447 0.686251
0.0269975 -0.283712 0.715905
-0.05984 -0.271525 0.685329
-0.0187822 -0.132583 0.745846
0.00156607 -0.28818 0.695826
-0.0262022 -0.148327 0.736662
-0.0272179 -0.173429 0.720455
0.026962 -0.268359 0.71772
-0.01088 -0.186303 0.687445
-0.0278034 -0.159776 0.726415
0.000629601 -0.272108 0.701027
-0.0124779 -0.15813 0.74342
-0.00930803 -0.246151 0.686098
-0.00977933 -0.261964 0.693478
-0.0403916 -0.253876 0.690634
0.000564911 -0.230316 0.687431
-0.0126451 -0.180018 0.723207
0.0193989 -0.253198 0.731973
-0.00383293 -0.176283 0.737283
-0.0176772 -0.17074 0.733742
0.0163825 -0.233421 0.728142
-0.00139875 -0.308273 0.718174
-0.0311499 -0.120598 0.748305
0.0127602 -0.26281 0.722354
0.00995347 -0.270119 0.713059
0.0106658 -0.224044 0.700197
0.0139936 -0.290577 0.706365
-0.00730247 -0.301008 0.699823
0.00968371 -0.219608 0.73439
0.0183284 -0.299496 0.716024
0.0078163 -0.245841 0.691465
0.00546783 -0.240625 0.720835
0.0298839 -0.276301 0.730218
0.00269008 -0.255307 0.70528
0.00836967 -0.223388 0.71687
0.0079337 -0.191662 0.701896
0.0254082 -0.29025 0.72989
-0.0158252 -0.280005 0.693648
-0.000325778 -0.238112 0.704553
0.00845057 -0.207832 0.704634
-0.00347988 -0.19098 0.732716
-0.00987604 -0.187772 0.750033
-0.0353488 -0.10293 0.756423
-0.0253059 -0.132174 0.760247
-0.0393942 -0.244034 0.76931
-0.0120305 -0.203613 0.741474
-0.00690854 -0.205424 0.724353
-0.0154532 -0.212309 0.755757
0.00405535 -0.230055 0.745278
-0.00476758 -0.192771 0.715038
0.00701053 -0.29961 0.731292
-0.0227658 -0.129679 0.746753
-0.0294127 -0.267836 0.763146
-0.0172612 -0.171657 0.751032
-0.0188557 -0.15461 0.740573
0.0297335 -0.291499 0.728718
0.0260805 -0.28927 0.740349
0.0245582 -0.254051 0.73236
