ply
    format ascii 1.0           
    element vertex 73
    property double x           
    property double y           
    property double z           
    end_header
-0.00694961 -0.0276524 0.57114
-0.0112081 -0.0929398 0.529087
0.0141487 -0.028395 0.582473
0.00380538 -0.153601 0.494932
-0.0139286 -0.139295 0.496885
-0.0167832 -0.196146 0.462003
-0.0325752 -0.157851 0.440815
-0.00329199 -0.063332 0.539972
0.00361953 -0.113302 0.532522
-0.0303104 -0.127756 0.504386
-0.0225948 -0.05226 0.556587
-0.036383 -0.0954426 0.536654
0.015583 -0.170782 0.506723
-0.0151323 -0.120692 0.516673
0.00185361 -0.0537873 0.562141
0.0160488 -0.051453 0.587852
0.0057493 -0.138223 0.511083
0.00798784 -0.20775 0.478242
0.00327727 -0.00402412 0.590742
-0.0413194 -0.119623 0.520789
-0.00344923 -0.187204 0.478082
-0.0310163 -0.145761 0.456055
0.0222705 -0.154328 0.524534
0.0271533 -0.141807 0.554269
0.00863819 -0.0740381 0.556913
0.0146088 -0.134699 0.535735
0.0168794 -0.220366 0.497932
-0.0422211 -0.222755 0.482633
0.0198229 -0.194121 0.515637
-0.024344 -0.044492 0.574439
0.00649611 -0.0994589 0.552108
0.0267576 -0.220535 0.524733
-0.00884305 -0.170994 0.493825
0.0135618 -0.243126 0.516743
0.0278288 -0.19958 0.538779
-0.0255871 -0.17399 0.456677
0.0128752 -0.0912117 0.57135
-0.020476 -0.170536 0.475852
0.026517 -0.186761 0.559195
0.0108877 -0.124499 0.555154
0.00533735 -0.196858 0.496993
-0.01585 -0.212016 0.4799
-0.0519396 -0.172023 0.442039
-0.021497 -0.232032 0.496629
0.0269694 -0.164505 0.547292
-0.053303 -0.184073 0.462759
-0.0320152 -0.150879 0.477599
0.0183515 -0.238515 0.540779
0.0190432 0.00264686 0.610385
0.0285245 -0.166613 0.571781
0.0155304 -0.177365 0.532671
0.00309684 -0.0750287 0.586988
0.0142507 -0.232966 0.576639
0.0210622 -0.177229 0.592577
0.00106957 -0.217142 0.606531
0.00898047 -0.252237 0.558537
-0.00116811 -0.1978 0.595044
0.00896309 -0.211599 0.583827
0.00438415 -0.228122 0.55595
0.0140352 -0.209166 0.559507
0.000380451 -0.115902 0.570677
0.00181824 -0.254388 0.538193
0.0169521 -0.153508 0.588079
0.0025694 -0.00304278 0.592269
-0.0167219 -0.201305 0.612168
-0.0196735 -0.262163 0.53165
-0.00149346 -0.0102758 0.618724
-0.016615 -0.230634 0.614491
0.00673919 -0.184747 0.578017
-0.00719678 -0.24845 0.576707
-0.00448229 -0.229586 0.589201
-0.0236135 -0.24343 0.596237
-0.00159936 -0.0586525 0.594688
