ply
    format ascii 1.0           
    element vertex 70
    property double x           
    property double y           
    property double z           
    end_header
-0.522682 -0.501577 1.72659
-0.369469 -0.403851 1.7182
-0.370989 -0.0356696 1.91313
-0.344975 0.0532677 1.93181
-0.322997 -0.00524009 1.87914
-0.278406 -0.054825 1.87018
-0.371365 -0.507549 1.69418
-0.294725 0.101075 1.9227
-0.385454 -0.241031 1.83072
-0.410489 -0.558385 1.69907
-0.521898 -0.555414 1.76673
-0.391125 -0.148916 1.8432
-0.30849 -0.421975 1.69795
-0.332449 -0.545369 1.65867
-0.347968 -0.0994629 1.86688
-0.399701 -0.386868 1.76941
-0.263769 -0.549226 1.65858
-0.350744 -0.348273 1.74351
-0.337059 -0.270344 1.79132
-0.327243 -0.146929 1.83288
-0.187163 -0.45023 1.69988
-0.28285 -0.359112 1.71736
-0.381787 -0.323099 1.80796
-0.502661 -0.457587 1.75126
-0.404505 -0.344451 1.86981
-0.254263 -0.466453 1.68948
-0.458863 -0.51852 1.72179
-0.226578 -0.295518 1.75246
-0.290995 -0.308377 1.75904
-0.416678 -0.487114 1.74268
-0.307092 -0.215625 1.81916
-0.192365 -0.515204 1.67189
-0.194769 -0.59127 1.68084
-0.362171 -0.458413 1.73429
-0.354372 -0.63204 1.77331
-0.268538 -0.171092 1.83529
-0.290376 -0.618139 1.73781
-0.265444 -0.267245 1.79543
-0.307097 -0.506061 1.69686
-0.159363 -0.401856 1.73926
-0.343931 -0.580687 1.71836
-0.213892 -0.358228 1.73222
-0.448658 -0.452301 1.77963
-0.241632 -0.415307 1.73243
-0.263549 -0.127493 1.88915
-0.071521 -0.511876 1.76765
-0.0377565 -0.460593 1.84929
-0.265791 -0.267783 1.80367
-0.151883 -0.337627 1.75795
-0.0938535 -0.580601 1.74587
-0.145999 -0.306111 1.81841
-0.101155 -0.35417 1.80172
-0.143106 -0.553477 1.70814
-0.0920652 -0.426549 1.84804
-0.13471 -0.528083 1.76413
-0.0886345 -0.458568 1.8016
-0.142524 -0.609838 1.73061
-0.141929 -0.469303 1.75694
-0.250921 -0.245703 1.85192
-0.293173 0.103762 1.91961
-0.280913 0.0543482 1.97734
-0.169893 -0.659741 1.77005
-0.0233281 -0.504814 1.89748
-0.138154 -0.400744 1.8123
-0.27202 -0.0857027 1.91862
-0.0544851 -0.557716 1.88138
-0.0660858 -0.435695 1.90831
-0.0753996 -0.572774 1.81286
-0.0643189 -0.511083 1.82957
-0.303262 -0.0285426 1.9437
