ply
    format ascii 1.0           
    element vertex 72
    property double x           
    property double y           
    property double z           
    end_header
-0.0357694 -0.237803 1.50995
0.0209886 -0.262298 1.51081
-0.0686458 -0.53707 1.35851
-0.0316419 -0.45296 1.38886
0.0188798 -0.170562 1.54304
-0.048622 -0.355247 1.45238
-0.0151094 -0.541795 1.35789
-0.0160039 -0.190047 1.53221
-0.0210404 -0.4237 1.40844
0.00207665 -0.22755 1.50797
-0.0586694 -0.438697 1.408
-0.0194136 -0.278641 1.48777
-0.126308 -0.48706 1.34509
-0.0400129 -0.513465 1.36903
0.00315552 -0.472796 1.39228
-0.0427965 -0.301231 1.46101
-0.0167411 -0.379496 1.44242
-0.050883 -0.403771 1.43715
0.020367 -0.553682 1.37668
0.0488528 -0.410756 1.44801
0.0198847 -0.439231 1.41213
-0.00607123 -0.309368 1.47304
-0.116596 -0.464718 1.36556
-0.0940608 -0.506817 1.3596
0.0629344 -0.50677 1.42387
0.0281219 -0.506401 1.39978
-0.143632 -0.518188 1.36513
-0.081565 -0.412457 1.46345
0.0105137 -0.408586 1.43556
-0.0391616 -0.485335 1.39519
0.05869 -0.54426 1.40422
-0.00141941 -0.351363 1.4681
-0.0234088 -0.588517 1.40792
-0.00714057 -0.521399 1.38812
-0.0684795 -0.586676 1.4096
0.0206906 -0.331212 1.48883
0.0726679 -0.481476 1.45497
0.0191614 -0.389381 1.4631
0.051532 -0.448924 1.43886
0.0457319 -0.588019 1.40381
0.0300927 -0.477956 1.42832
0.0976648 -0.557319 1.48701
-0.0952441 -0.467756 1.39543
0.0140609 -0.306334 1.5208
0.100083 -0.531076 1.5415
-0.0750122 -0.495333 1.38722
0.0814909 -0.593782 1.466
0.0710131 -0.426514 1.50512
0.0699585 -0.572459 1.43414
0.0924804 -0.46068 1.50741
0.0756662 -0.503623 1.52896
0.0779853 -0.445291 1.47119
0.0632618 -0.557975 1.467
0.0151255 -0.37699 1.49779
0.0687086 -0.523455 1.46506
0.0848415 -0.523638 1.50367
0.0584709 -0.603239 1.44278
0.0727208 -0.512257 1.5675
0.0628814 -0.482785 1.49876
0.0195213 -0.169618 1.54202
0.00598134 -0.196558 1.57208
0.075249 -0.591957 1.50665
0.0693791 -0.584684 1.54966
0.0866964 -0.558661 1.5695
0.0814259 -0.557094 1.5224
-0.00926308 -0.230827 1.50773
0.00881947 -0.280609 1.53625
0.0174219 -0.391573 1.46674
0.0957675 -0.459352 1.50381
-0.00774731 -0.24333 1.54397
-0.000519893 -0.34582 1.51267
0.0854768 -0.596346 1.46587
