ply
    format ascii 1.0           
    element vertex 81
    property double x           
    property double y           
    property double z           
    end_header
-0.274078 -0.320145 1.1514
-0.209221 -0.123638 1.21856
-0.230497 -0.159229 1.19302
-0.249364 -0.30618 1.12657
-0.232994 -0.142907 1.20872
-0.260844 -0.345203 1.12521
-0.258502 -0.291924 1.1566
-0.259272 -0.277186 1.18195
-0.228917 -0.196625 1.18204
-0.25422 -0.274312 1.15643
-0.233995 -0.305126 1.115
-0.246547 -0.324675 1.12843
-0.237342 -0.245782 1.15641
-0.246946 -0.281723 1.13799
-0.252686 -0.259856 1.18845
-0.254981 -0.367742 1.12341
-0.266654 -0.296102 1.17588
-0.261994 -0.330777 1.13893
-0.25796 -0.313496 1.14125
-0.242764 -0.233034 1.171
-0.270469 -0.304962 1.15977
-0.270769 -0.360684 1.13451
-0.224965 -0.214669 1.17442
-0.238928 -0.215672 1.18378
-0.21295 -0.16153 1.18927
-0.28856 -0.363864 1.14261
-0.248092 -0.259825 1.16594
-0.241016 -0.353187 1.1204
-0.213056 -0.178344 1.19507
-0.228507 -0.320645 1.12018
-0.219069 -0.337453 1.11683
-0.227897 -0.23332 1.16633
-0.249059 -0.299269 1.14369
-0.220427 -0.355967 1.11727
-0.21139 -0.141781 1.20445
-0.219414 -0.281431 1.1406
-0.231815 -0.295315 1.13186
-0.228529 -0.178076 1.20671
-0.211198 -0.228969 1.16684
-0.221741 -0.367711 1.13267
-0.201371 -0.344251 1.11691
-0.218546 -0.243757 1.15918
-0.223789 -0.258909 1.15164
-0.233483 -0.203994 1.19937
-0.206296 -0.255983 1.15708
-0.237246 -0.165388 1.2101
-0.206307 -0.328254 1.1272
-0.275029 -0.345386 1.14857
-0.183136 -0.336022 1.1398
-0.234086 -0.273645 1.1491
-0.230447 -0.333348 1.1319
-0.236461 -0.368625 1.12797
-0.289011 -0.349138 1.14102
-0.206603 -0.361842 1.12642
-0.199885 -0.239662 1.17425
-0.218774 -0.307649 1.12587
-0.21025 -0.292872 1.15285
-0.213529 -0.197277 1.18968
-0.231037 -0.179238 1.20533
-0.221836 -0.355954 1.11558
-0.210342 -0.27351 1.15266
-0.209365 -0.120993 1.22022
-0.24838 -0.260489 1.16754
-0.196512 -0.327984 1.14126
-0.199863 -0.195808 1.2006
-0.208774 -0.13868 1.20754
-0.213207 -0.177739 1.19566
-0.200462 -0.346084 1.11835
-0.192659 -0.355295 1.13914
-0.205619 -0.185664 1.22299
-0.193621 -0.34301 1.13264
-0.205624 -0.283855 1.1678
-0.20224 -0.225201 1.20165
-0.200276 -0.266932 1.17038
-0.199917 -0.133147 1.2284
-0.206841 -0.223484 1.18412
-0.209091 -0.298822 1.1723
-0.206272 -0.156691 1.20301
-0.214714 -0.309765 1.1392
-0.203456 -0.149884 1.22276
-0.204248 -0.261032 1.19158
