ply
    format ascii 1.0           
    element vertex 78
    property double x           
    property double y           
    property double z           
    end_header
-0.102376 -0.226879 0.721222
-0.153482 -0.261517 0.676204
-0.0600883 -0.0803494 0.825934
-0.0651818 -0.184688 0.744876
-0.0473601 -0.101567 0.810439
-0.0858139 -0.245095 0.703918
-0.073822 -0.203647 0.736741
-0.121363 -0.221777 0.734584
-0.0752594 -0.138388 0.770205
-0.0730714 -0.262757 0.690069
-0.133928 -0.278597 0.674328
-0.110306 -0.276243 0.678974
-0.0618639 -0.244613 0.700009
-0.129402 -0.258849 0.685418
-0.0926716 -0.29919 0.683388
-0.166676 -0.249162 0.689832
-0.158473 -0.284503 0.682623
-0.0956704 -0.211096 0.737472
-0.0521211 -0.21104 0.736088
-0.120787 -0.241656 0.72404
-0.0724186 -0.224365 0.730221
-0.0684874 -0.312222 0.707947
-0.0334596 -0.144813 0.777317
-0.108605 -0.25944 0.697384
-0.0310137 -0.298639 0.730682
-0.0537375 -0.133488 0.780484
-0.0476334 -0.261929 0.710374
-0.0476805 -0.19578 0.753025
-0.0639677 -0.281517 0.708044
-0.139391 -0.297649 0.683729
0.00140204 -0.326102 0.764191
-0.0940695 -0.279857 0.693187
-0.0424214 -0.323576 0.717822
-0.0516386 -0.233575 0.732579
-0.0637392 -0.332989 0.712042
-0.129799 -0.248024 0.701258
-0.11546 -0.295933 0.684658
-0.146065 -0.246172 0.689235
-0.0860975 -0.324785 0.702109
-0.0428699 -0.121757 0.830639
-0.0382888 -0.221942 0.750341
-0.0128036 -0.310364 0.752034
-0.127496 -0.312409 0.692235
-0.028973 -0.293957 0.751363
-0.0715046 -0.122308 0.79011
-0.055851 -0.152246 0.770408
-0.105179 -0.315543 0.687312
-0.0369723 -0.167417 0.778926
-0.0283972 -0.320028 0.73459
-0.0648766 -0.162846 0.752353
-0.0551991 -0.300655 0.722073
-0.0482534 -0.176606 0.763179
-0.0852574 -0.302015 0.702199
-0.0350241 -0.338883 0.744111
-0.00941048 -0.331013 0.741496
-0.0474872 -0.254656 0.771528
-0.0559168 -0.250301 0.749479
-0.0552402 -0.272529 0.755375
-0.00406054 -0.347161 0.759838
-0.012446 -0.313814 0.776162
-0.153327 -0.262367 0.676252
-0.0446636 -0.216068 0.770227
-0.0479069 -0.197463 0.775042
-0.0362215 -0.138103 0.801368
-0.0570381 -0.272989 0.732796
-0.0634199 -0.270119 0.778187
-0.0484272 -0.174553 0.80953
-0.0668667 -0.25104 0.723695
-0.0532765 -0.338002 0.732007
-0.0531684 -0.101708 0.831544
-0.056321 -0.23598 0.784173
-0.0491184 -0.234634 0.762195
-0.0520694 -0.215861 0.793512
-0.044145 -0.159103 0.793951
-0.0481555 -0.180036 0.789059
-0.018588 -0.33581 0.77971
0.00597848 -0.324943 0.761832
-0.0279372 -0.293036 0.751376
