ply
    format ascii 1.0           
    element vertex 78
    property double x           
    property double y           
    property double z           
    end_header
-0.0819337 -0.22277 1.64114
-0.191583 -0.502355 1.49582
-0.296924 -0.587139 1.47
-0.0499125 -0.596458 1.42374
-0.143724 -0.448655 1.49527
-0.177615 -0.528207 1.44931
-0.264702 -0.608015 1.44425
-0.209604 -0.535907 1.51506
-0.207388 -0.500765 1.53667
-0.136254 -0.334336 1.56268
-0.212281 -0.563228 1.45925
-0.146881 -0.516794 1.41987
-0.305231 -0.606695 1.51924
-0.129966 -0.411734 1.50325
-0.166384 -0.553662 1.41209
-0.172289 -0.470322 1.5161
-0.226747 -0.593166 1.42867
-0.140422 -0.483963 1.47946
-0.109466 -0.452341 1.47059
-0.187576 -0.625285 1.41278
-0.307812 -0.570018 1.50712
-0.289054 -0.628438 1.47993
-0.109118 -0.540612 1.4181
-0.0715698 -0.644025 1.40844
-0.122774 -0.637479 1.42377
-0.255758 -0.643085 1.45954
-0.103314 -0.672746 1.42334
-0.0921385 -0.423099 1.49563
-0.0976438 -0.315283 1.55512
-0.220736 -0.630042 1.43855
-0.254504 -0.570565 1.46013
-0.0704949 -0.255194 1.6011
-0.187438 -0.592187 1.43303
-0.036328 -0.287626 1.62322
-0.127606 -0.581683 1.426
-0.148807 -0.667451 1.43277
-0.118042 -0.303748 1.59116
-0.0286846 -0.586334 1.45285
0.00253971 -0.6083 1.43553
-0.224227 -0.662823 1.4565
-0.0668215 -0.326278 1.52882
-0.0933681 -0.611233 1.435
-0.0340732 -0.632763 1.42239
-0.103332 -0.349494 1.53832
-0.130412 -0.372823 1.51774
-0.0711827 -0.464862 1.47687
-0.24338 -0.551931 1.48441
-0.0610601 -0.367333 1.52954
-0.0996598 -0.257868 1.63268
-0.102762 -0.490797 1.4593
-0.15689 -0.626202 1.43286
-0.0266875 -0.667313 1.43825
0.00507244 -0.644397 1.41336
-0.194767 -0.659812 1.42524
-0.0902598 -0.389425 1.5154
-0.0506361 -0.524767 1.51054
-0.0866501 -0.521735 1.48667
0.0416223 -0.627953 1.43284
-0.0436491 -0.425539 1.56034
-0.0713214 -0.56031 1.48907
-0.048608 -0.314707 1.5679
0.0283592 -0.613352 1.47078
-0.00530375 -0.590223 1.47827
-0.063422 -0.456284 1.51414
-0.0703002 -0.424748 1.52785
-0.0958611 -0.562896 1.45776
-0.0464157 -0.383183 1.58628
-0.0624307 -0.558517 1.53291
-0.0663484 -0.674861 1.43957
0.0366347 -0.669229 1.43197
-0.0577088 -0.495168 1.53958
-0.0593465 -0.256326 1.6398
-0.194287 -0.656155 1.42663
-0.0691931 -0.491035 1.50213
-0.124929 -0.527611 1.45581
-0.0656925 -0.46112 1.57393
-0.075368 -0.648557 1.41617
0.0288481 -0.656 1.48025
