ply
    format ascii 1.0           
    element vertex 68
    property double x           
    property double y           
    property double z           
    end_header
-0.65405 -0.314222 4.06088
-0.56587 -0.904586 3.67919
-0.950338 -1.24566 3.65959
-0.691306 -0.743405 3.89592
-1.00296 -1.16071 3.71153
-0.491737 -0.582538 3.96953
-0.64907 -0.617333 3.99547
-0.685864 -0.514687 4.01203
-0.890692 -0.965774 3.79041
-0.731931 -1.12967 3.62029
-0.855965 -1.14164 3.64363
-0.924197 -1.10545 3.71946
-0.724349 -1.218 3.57922
-0.594039 -0.724386 3.82181
-0.743758 -0.995032 3.69526
-0.676153 -0.847127 3.83667
-0.630732 -1.02083 3.68741
-0.516942 -0.821693 3.73739
-0.791348 -0.923228 3.75584
-0.825293 -1.06474 3.70521
-0.691799 -0.427172 4.07797
-1.01956 -1.24905 3.76441
-0.566971 -0.398456 4.0419
-0.478473 -1.13088 3.70289
-0.452511 -0.375341 4.1194
-0.811501 -1.22981 3.63453
-0.514964 -1.01202 3.68372
-0.714294 -0.626629 4.06511
-0.630184 -0.245834 4.15073
-0.757893 -0.862625 3.90935
-0.53665 -0.297012 4.09692
-0.465089 -0.916211 3.72396
-0.506705 -1.32209 3.69583
-0.581666 -0.505139 3.99383
-0.611832 -0.871899 3.76846
-0.678716 -0.937499 3.75463
-0.419239 -1.22739 3.72594
-0.476002 -0.498459 4.05176
-0.864211 -1.30768 3.65572
-0.544462 -1.21782 3.72334
-0.301937 -1.09537 3.88522
-0.764427 -1.31333 3.64643
-0.469465 -0.695673 3.94457
-0.644181 -1.13045 3.67526
-0.668576 -1.28741 3.60397
-0.576787 -0.68068 3.9234
-0.315939 -1.32434 3.86134
-0.616609 -1.21876 3.6279
-0.441963 -1.05115 3.77073
-0.480441 -0.754456 3.85896
-0.401626 -0.735737 4.0189
-0.610449 -1.29929 3.69009
-0.350861 -1.00581 3.93097
-0.571095 -1.09633 3.72608
-0.691267 -1.36475 3.67256
-0.514403 -0.252179 4.19129
-0.431134 -0.848328 3.80529
-0.401813 -1.04921 3.86331
-0.362897 -1.14817 3.78474
-0.400306 -0.854272 4.00461
-0.423231 -0.957532 3.81161
-0.324298 -1.21397 3.86479
-0.460379 -0.616926 4.08348
-0.280231 -1.36733 3.97676
-0.427717 -1.31271 3.79356
-0.436419 -0.933433 3.91782
-0.280658 -1.27129 3.95335
-0.350319 -1.21133 3.9981
