ply
    format ascii 1.0           
    element vertex 71
    property double x           
    property double y           
    property double z           
    end_header
-0.186076 -0.312666 1.2575
-0.17775 -0.481727 1.2058
-0.146813 -0.537085 1.14063
-0.106605 -0.481941 1.10055
-0.204667 -0.336984 1.25522
-0.183558 -0.425453 1.21857
-0.147648 -0.513955 1.14972
-0.125706 -0.502466 1.13046
-0.149246 -0.478544 1.16501
-0.114826 -0.508555 1.09661
-0.131914 -0.445189 1.14004
-0.174366 -0.408526 1.19528
-0.182727 -0.350796 1.22237
-0.218347 -0.38548 1.23985
-0.137362 -0.481735 1.14061
-0.208886 -0.522149 1.17381
-0.17408 -0.436609 1.18467
-0.191757 -0.373837 1.21114
-0.171498 -0.493312 1.17514
-0.144745 -0.45303 1.16551
-0.121237 -0.477626 1.11918
-0.18606 -0.325436 1.2308
-0.193956 -0.50337 1.19295
-0.180107 -0.457126 1.19566
-0.138936 -0.521093 1.11962
-0.191568 -0.462279 1.22049
-0.200393 -0.36122 1.23984
-0.21217 -0.552284 1.13512
-0.170061 -0.42011 1.1636
-0.199234 -0.402481 1.21694
-0.213565 -0.313589 1.27128
-0.166485 -0.46446 1.17785
-0.23709 -0.329658 1.26548
-0.19952 -0.289537 1.26353
-0.207402 -0.484084 1.20982
-0.203119 -0.526153 1.1454
-0.113022 -0.487079 1.07751
-0.228596 -0.359233 1.24781
-0.172157 -0.512449 1.15455
-0.136049 -0.525542 1.09532
-0.268302 -0.499505 1.18092
-0.22892 -0.539361 1.1607
-0.154199 -0.536947 1.1086
-0.244881 -0.521214 1.17621
-0.13504 -0.463477 1.12568
-0.164974 -0.548293 1.13125
-0.175001 -0.537298 1.14845
-0.193146 -0.504232 1.16302
-0.213109 -0.43376 1.22297
-0.273247 -0.539965 1.13933
-0.241168 -0.541908 1.13579
-0.2239 -0.409361 1.22448
-0.261189 -0.473026 1.18564
-0.222369 -0.500331 1.18444
-0.249891 -0.408582 1.21707
-0.189216 -0.540651 1.1274
-0.204602 -0.483958 1.2109
-0.219509 -0.462224 1.2188
-0.298778 -0.530459 1.12331
-0.227431 -0.479441 1.19905
-0.243621 -0.488431 1.17943
-0.266911 -0.520057 1.15795
-0.254175 -0.431289 1.19805
-0.242105 -0.373345 1.22454
-0.290727 -0.518825 1.14387
-0.229194 -0.291331 1.27165
-0.27841 -0.536525 1.11173
-0.174172 -0.546815 1.10731
-0.239065 -0.457449 1.19014
-0.280311 -0.495593 1.14098
-0.250454 -0.39874 1.18596
