ply
    format ascii 1.0           
    element vertex 81
    property double x           
    property double y           
    property double z           
    end_header
-0.0164792 -0.542469 1.13994
-0.0763838 -0.287014 1.43803
-0.0482286 -0.656812 1.20796
-0.00987622 -0.571241 1.23369
-0.00236462 -0.539431 1.26138
-0.0384159 -0.467299 1.29897
-0.0286671 -0.577004 1.28008
-0.0669593 -0.450162 1.36559
-0.0247565 -0.557343 1.17703
-0.0546781 -0.320048 1.38753
-0.0352272 -0.511506 1.32793
-0.163332 -0.647835 1.27646
-0.0496621 -0.618647 1.13861
-0.0398887 -0.552133 1.32013
-0.0689985 -0.382597 1.39523
-0.0905652 -0.495912 1.35274
-0.0435521 -0.627864 1.18186
-0.0573809 -0.396124 1.35844
-0.0600303 -0.619071 1.21856
-0.0358041 -0.581102 1.14847
-0.062358 -0.405512 1.31384
-0.0509809 -0.368822 1.32524
-0.077062 -0.6536 1.15188
-0.130133 -0.423298 1.3846
-0.0388059 -0.586961 1.20206
-0.0843651 -0.674998 1.19251
-0.0935172 -0.360802 1.41165
-0.0754151 -0.616298 1.26541
-0.0274168 -0.505567 1.28443
-0.0497374 -0.58963 1.24568
-0.103372 -0.393674 1.39585
-0.0561068 -0.440534 1.32195
-0.0577786 -0.475943 1.33639
-0.086882 -0.315394 1.40286
-0.033549 -0.5223 1.1728
-0.0759173 -0.581556 1.30177
-0.0247777 -0.539387 1.29021
-0.174836 -0.65401 1.23387
-0.121797 -0.477121 1.3686
-0.0840449 -0.657276 1.2287
-0.135777 -0.613562 1.27813
-0.128358 -0.330198 1.41562
-0.0846647 -0.413418 1.37227
-0.0370603 -0.556576 1.11699
-0.101895 -0.444128 1.3757
-0.154955 -0.492359 1.35674
-0.146021 -0.286197 1.41985
-0.224067 -0.592334 1.26771
-0.2249 -0.653992 1.17372
-0.08195 -0.547882 1.33262
-0.104679 -0.590221 1.27392
-0.114729 -0.574365 1.30872
-0.111954 -0.273472 1.43761
-0.190153 -0.637414 1.18117
-0.0537875 -0.358552 1.36722
-0.197148 -0.57115 1.29287
-0.120431 -0.522863 1.34894
-0.179964 -0.603032 1.2773
-0.119532 -0.643284 1.2186
-0.162994 -0.516179 1.32651
-0.150278 -0.576277 1.28812
-0.134425 -0.543222 1.31448
-0.251625 -0.632343 1.17857
-0.106571 -0.610585 1.2395
-0.1532 -0.450555 1.36902
-0.269953 -0.595377 1.19312
-0.232036 -0.608936 1.19867
-0.168575 -0.544649 1.30443
-0.156814 -0.309434 1.40279
-0.194335 -0.524822 1.29504
-0.123739 -0.354057 1.38707
-0.144808 -0.288572 1.42506
-0.194968 -0.632905 1.26199
-0.278279 -0.552103 1.1859
-0.158521 -0.519443 1.33205
-0.0538024 -0.326155 1.38722
-0.217631 -0.54603 1.26064
-0.199701 -0.63172 1.21178
-0.0758491 -0.289449 1.43564
-0.246588 -0.564019 1.20366
-0.246577 -0.524431 1.18633
