ply
    format ascii 1.0           
    element vertex 83
    property double x           
    property double y           
    property double z           
    end_header
-0.0480491 -0.351177 0.90036
-0.0875954 -0.350427 1.07119
-0.106528 -0.181163 1.13335
-0.108379 -0.0881224 1.16973
-0.0849672 -0.123828 1.12565
-0.0458876 -0.343606 1.01663
-0.0529956 -0.374644 0.990319
-0.108144 -0.248139 1.10816
-0.0752607 -0.377051 1.03484
-0.0614297 -0.362905 0.936493
-0.0851854 -0.423283 0.901741
-0.211719 -0.431954 1.02332
-0.0955324 -0.455124 0.967078
-0.0761863 -0.269858 1.04775
-0.0800607 -0.311503 1.0771
-0.0942065 -0.195218 1.09998
-0.0720893 -0.386385 0.908574
-0.0860968 -0.429606 0.941687
-0.128833 -0.159528 1.14609
-0.133372 -0.289726 1.09552
-0.0826601 -0.172048 1.06806
-0.10167 -0.419019 0.977436
-0.131792 -0.451424 0.984389
-0.0989839 -0.274659 1.08229
-0.11704 -0.453013 0.911652
-0.103407 -0.115083 1.07875
-0.122622 -0.410985 1.01798
-0.0932135 -0.389622 1.0013
-0.0872769 -0.161269 1.10812
-0.094364 -0.240697 1.06629
-0.130387 -0.47012 0.949677
-0.168872 -0.215443 1.12037
-0.163487 -0.268689 1.1072
-0.140674 -0.189074 1.1324
-0.079276 -0.389644 0.960563
-0.093972 -0.208372 1.06014
-0.0695449 -0.307492 1.03567
-0.0695853 -0.36373 0.875748
-0.122708 -0.376064 1.05112
-0.159855 -0.124121 1.146
-0.181317 -0.401812 1.0256
-0.069285 -0.341354 1.04273
-0.115361 -0.116787 1.13906
-0.0651255 -0.329636 0.930493
-0.164814 -0.314201 1.09033
-0.173521 -0.0812184 1.14858
-0.143063 -0.237863 1.11328
-0.195813 -0.280808 1.09426
-0.219879 -0.43961 0.98112
-0.123072 -0.210089 1.11019
-0.264889 -0.374259 1.00887
-0.263898 -0.438569 0.919221
-0.128492 -0.341431 1.07832
-0.160438 -0.365609 1.05472
-0.148747 -0.382786 1.02259
-0.142178 -0.0700224 1.16619
-0.209375 -0.331216 1.04559
-0.223283 -0.388282 1.02004
-0.176666 -0.332375 1.05649
-0.238421 -0.355341 1.03241
-0.19114 -0.240628 1.10474
-0.163731 -0.43448 0.968511
-0.130148 -0.155991 1.1447
-0.200158 -0.308505 1.07211
-0.193446 -0.365011 1.03115
-0.303475 -0.377583 0.931758
-0.28788 -0.416151 0.920212
-0.15635 -0.148281 1.11734
-0.211872 -0.43369 1.02196
-0.15009 -0.404509 0.990921
-0.184516 -0.101599 1.13197
-0.269186 -0.395359 0.940993
-0.231949 -0.309137 1.03003
-0.305766 -0.330685 0.913484
-0.209854 -0.438725 0.895167
-0.105002 -0.416552 0.967836
-0.253478 -0.329486 0.995798
-0.232397 -0.275512 1.02131
-0.239588 -0.417035 0.954584
-0.240285 -0.418185 1.00616
-0.277611 -0.34594 0.93856
-0.273489 -0.308369 0.922444
-0.21181 -0.277284 1.04928
