ply
    format ascii 1.0           
    element vertex 67
    property double x           
    property double y           
    property double z           
    end_header
-0.0632966 -0.198326 0.802748
-0.0585088 -0.382381 0.676204
-0.080573 -0.33784 0.749507
-0.0645826 -0.221056 0.782135
-0.100734 -0.353556 0.745867
-0.0473046 -0.376021 0.71475
-0.0732385 -0.299994 0.739244
-0.068991 -0.257996 0.753064
-0.0490241 -0.20166 0.7776
-0.058993 -0.233873 0.74633
-0.0540354 -0.217683 0.761673
-0.0834274 -0.291212 0.756569
-0.0839956 -0.250797 0.775402
-0.0332878 -0.363832 0.702552
-0.0532614 -0.183601 0.790696
-0.124527 -0.397186 0.708274
-0.0777791 -0.372335 0.717958
-0.0852884 -0.388567 0.707857
-0.118915 -0.368883 0.736926
-0.0783025 -0.212258 0.795455
-0.102812 -0.335134 0.756838
-0.0952182 -0.302975 0.743966
-0.068219 -0.279437 0.746858
-0.0836543 -0.350992 0.731834
-0.0999094 -0.366475 0.726283
-0.0705231 -0.177471 0.802926
-0.0600134 -0.360111 0.714285
-0.101119 -0.387651 0.718333
-0.0451821 -0.347369 0.701966
-0.106938 -0.254557 0.748281
-0.148634 -0.390481 0.704512
-0.0712412 -0.34217 0.712681
-0.138357 -0.408959 0.692636
-0.0650252 -0.38076 0.703541
-0.108088 -0.288498 0.756299
-0.194983 -0.374529 0.68819
-0.0954467 -0.212118 0.783049
-0.115698 -0.314685 0.752722
-0.17895 -0.357502 0.698232
-0.167344 -0.398717 0.692411
-0.145703 -0.368382 0.708191
-0.0849259 -0.194013 0.796328
-0.137614 -0.342599 0.725442
-0.135441 -0.321386 0.737331
-0.106134 -0.241008 0.769247
-0.156418 -0.410417 0.675335
-0.175565 -0.379243 0.697331
-0.0873157 -0.226919 0.771334
-0.118521 -0.334658 0.740452
-0.0913801 -0.27102 0.7549
-0.150503 -0.346371 0.703826
-0.113838 -0.380834 0.709741
-0.159493 -0.364046 0.695128
-0.181554 -0.389444 0.678367
-0.16745 -0.3954 0.662471
-0.125999 -0.363135 0.717975
-0.146799 -0.32341 0.710359
-0.194243 -0.380981 0.663231
-0.196005 -0.353219 0.686216
-0.107749 -0.2545 0.74984
-0.204841 -0.363679 0.668862
-0.118594 -0.295348 0.735596
-0.119461 -0.27316 0.740033
-0.105156 -0.231452 0.742329
-0.132714 -0.308211 0.71966
-0.189598 -0.343329 0.66519
-0.190286 -0.381887 0.66054
