ply
    format ascii 1.0           
    element vertex 65
    property double x           
    property double y           
    property double z           
    end_header
-0.0593283 -0.20671 1.04129
-0.0522968 -0.440423 0.872655
-0.0746258 -0.38615 0.969866
-0.0587655 -0.251331 0.967211
-0.0706904 -0.337067 0.95752
-0.0328737 -0.431795 0.920496
-0.0820399 -0.327261 0.981439
-0.0620206 -0.235216 1.01387
-0.0987652 -0.408566 0.968158
-0.0524362 -0.22929 0.986127
-0.0680815 -0.283698 0.97649
-0.0841126 -0.276114 1.00713
-0.0808906 -0.451391 0.916322
-0.129733 -0.466217 0.922049
-0.101788 -0.385563 0.983256
-0.0181815 -0.414528 0.903099
-0.0653922 -0.310678 0.967578
-0.0780208 -0.226343 1.03317
-0.0647514 -0.3115 0.939891
-0.0717624 -0.429614 0.928653
-0.0447295 -0.209131 1.00706
-0.0973038 -0.344618 0.967371
-0.0505327 -0.1858 1.02469
-0.051534 -0.412262 0.921633
-0.0803713 -0.402179 0.947106
-0.0987205 -0.452032 0.932201
-0.122346 -0.430057 0.958184
-0.071836 -0.334902 0.929387
-0.0991276 -0.426125 0.942345
-0.148349 -0.48232 0.904061
-0.068255 -0.390696 0.921787
-0.161767 -0.460476 0.921362
-0.0347288 -0.396037 0.90549
-0.0917629 -0.246659 1.00248
-0.120777 -0.360962 0.980237
-0.0565487 -0.439153 0.90856
-0.101853 -0.228081 1.01989
-0.159677 -0.432274 0.926303
-0.186519 -0.472662 0.908443
-0.204862 -0.42242 0.919098
-0.0887476 -0.2028 1.03491
-0.174147 -0.48554 0.887017
-0.149935 -0.39846 0.94794
-0.114245 -0.266187 1.00256
-0.224429 -0.445719 0.908373
-0.147654 -0.371233 0.963593
-0.124208 -0.386536 0.964617
-0.113936 -0.326981 0.985867
-0.198478 -0.449793 0.917008
-0.117098 -0.282576 0.977066
-0.0941866 -0.302384 0.980695
-0.121739 -0.43032 0.959585
-0.207498 -0.462875 0.893088
-0.167899 -0.403716 0.920756
-0.17421 -0.48588 0.884981
-0.0714395 -0.183112 1.04366
-0.226478 -0.455291 0.876831
-0.166026 -0.376499 0.930774
-0.191734 -0.469676 0.870768
-0.241791 -0.433338 0.885211
-0.133625 -0.423213 0.936102
-0.132198 -0.308478 0.965676
-0.229025 -0.41873 0.907721
-0.129081 -0.337287 0.959695
-0.107348 -0.426245 0.949573
