ply
    format ascii 1.0           
    element vertex 65
    property double x           
    property double y           
    property double z           
    end_header
-0.0196589 -0.0425083 0.718947
-0.0768297 -0.261916 0.604695
-0.0374774 -0.166165 0.663295
-0.0299522 -0.0738586 0.708903
-0.0789577 -0.217807 0.593839
-0.0139627 -0.190766 0.634635
0.000744641 -0.285184 0.629629
-0.0550226 -0.225113 0.589583
0.0128413 -0.24153 0.639395
-0.0181029 -0.152778 0.671775
-0.0321082 -0.23613 0.6141
-0.0403356 -0.143429 0.674157
-0.0223877 -0.214286 0.631664
-0.0496236 -0.0553582 0.714441
-0.029723 -0.258604 0.608599
-0.0597514 -0.105592 0.705507
0.0030979 -0.214754 0.635835
-0.0114438 -0.0656759 0.720813
-0.0553795 -0.0802772 0.71052
-0.0401904 -0.123912 0.689633
-0.0139368 -0.110643 0.700234
-0.0100867 -0.258836 0.616945
-0.0584184 -0.156215 0.675716
0.00911877 -0.19472 0.648884
-0.0411613 -0.0355244 0.728508
0.00872346 -0.189821 0.67627
0.00125216 -0.311553 0.63474
-0.0206169 -0.0304945 0.742001
-0.0162661 -0.176792 0.673925
-0.051586 -0.221139 0.612648
0.0139268 -0.295152 0.652635
-0.0169394 -0.141891 0.694196
-0.00999987 -0.238332 0.62974
-0.0363489 -0.194745 0.64486
-0.0505113 -0.245629 0.602435
-0.0745122 -0.211489 0.614779
-0.0482543 -0.214628 0.634307
0.00834806 -0.275324 0.66799
-0.00953236 -0.0829475 0.737528
-0.0582049 -0.204396 0.658739
0.02096 -0.291235 0.7035
-0.0562073 -0.178174 0.669282
0.00166069 -0.333396 0.651312
-0.0107445 -0.0550565 0.740533
-0.00534144 -0.11996 0.72498
0.00903458 -0.24044 0.678013
-0.0205331 -0.0975908 0.722806
0.00626457 -0.214396 0.665587
0.0202837 -0.319577 0.662567
0.000800482 -0.164126 0.690624
0.0121107 -0.215675 0.689747
0.0246477 -0.306024 0.683415
0.0294182 -0.319129 0.703707
0.00241725 -0.264352 0.690646
-0.0177603 -0.14294 0.722805
-0.0121741 -0.26714 0.636125
0.00113501 -0.254595 0.654093
0.011371 -0.340418 0.705165
0.0155992 -0.329136 0.685231
-0.00673548 -0.336994 0.676104
0.00328525 -0.289685 0.68777
0.0217588 -0.305818 0.723091
0.0186341 -0.329029 0.72526
0.000711835 -0.242004 0.703482
-0.00868865 -0.189424 0.69927
