ply
    format ascii 1.0           
    element vertex 67
    property double x           
    property double y           
    property double z           
    end_header
0.39735 -0.190909 0.72017
0.384156 -0.28651 0.681023
0.380532 -0.26942 0.675971
0.402521 -0.21928 0.715336
0.395683 -0.243988 0.702043
0.406386 -0.254442 0.691333
0.394337 -0.204753 0.717427
0.389068 -0.272455 0.676162
0.384365 -0.208007 0.718669
0.416135 -0.292611 0.692834
0.413772 -0.263653 0.693087
0.402247 -0.237942 0.705998
0.393229 -0.234493 0.705829
0.392807 -0.22589 0.71102
0.383807 -0.218687 0.717081
0.401418 -0.200006 0.722198
0.40391 -0.264187 0.690708
0.415241 -0.254701 0.697487
0.402384 -0.283691 0.683631
0.419169 -0.274119 0.695323
0.400532 -0.274382 0.684852
0.392728 -0.268526 0.682867
0.410172 -0.282862 0.687362
0.385653 -0.197421 0.71885
0.422137 -0.295172 0.702374
0.40916 -0.273645 0.692439
0.396127 -0.185537 0.729461
0.404535 -0.247152 0.707145
0.419187 -0.311044 0.702511
0.417594 -0.303224 0.695807
0.394083 -0.278813 0.679621
0.415456 -0.251453 0.708242
0.403052 -0.206373 0.729436
0.402209 -0.232021 0.725551
0.427192 -0.297797 0.714785
0.392985 -0.265237 0.692474
0.425861 -0.304275 0.707196
0.381772 -0.266325 0.684731
0.410063 -0.240857 0.713674
0.387881 -0.249889 0.706085
0.425159 -0.291189 0.722529
0.419014 -0.286572 0.707865
0.406784 -0.221546 0.725714
0.418096 -0.271976 0.710616
0.399275 -0.213584 0.723894
0.418457 -0.2612 0.714339
0.401145 -0.194913 0.729615
0.430127 -0.302018 0.723293
0.41512 -0.261911 0.705114
0.428583 -0.295446 0.728271
0.401944 -0.233167 0.713842
0.415888 -0.281715 0.716884
0.422457 -0.311744 0.725358
0.410991 -0.285119 0.694083
0.415137 -0.312849 0.713857
0.41335 -0.272057 0.721833
0.42413 -0.307781 0.716798
0.416096 -0.292364 0.71721
0.405679 -0.242597 0.724697
0.414626 -0.278943 0.702205
0.424136 -0.296563 0.731773
0.406798 -0.25081 0.7184
0.425943 -0.306041 0.733305
0.41699 -0.311758 0.703609
0.410939 -0.28456 0.726433
9.56648 -2.89455 0.645295
0.40869 -0.261697 0.721316
