ply
    format ascii 1.0           
    element vertex 69
    property double x           
    property double y           
    property double z           
    end_header
-0.0376502 -0.29185 0.79
-0.0272996 -0.222591 0.819976
-0.0253438 -0.205498 0.829169
-0.0406943 -0.276683 0.790149
-0.0216786 -0.26586 0.774141
-0.00941265 -0.271144 0.774748
-0.0171863 -0.234162 0.809382
-0.030522 -0.262344 0.792879
-0.0283225 -0.19886 0.835278
-0.0343899 -0.207994 0.834687
-0.0223901 -0.21545 0.823472
-0.0230509 -0.243137 0.804385
-0.0199481 -0.255874 0.794993
-0.0175755 -0.276976 0.771507
-0.012551 -0.256273 0.790621
-0.0266826 -0.251569 0.799135
-0.017019 -0.248167 0.799821
-0.0170903 -0.221604 0.819057
-0.0132539 -0.262867 0.78014
-0.00831357 -0.248275 0.804349
-0.0136264 -0.241386 0.806734
-0.0184484 -0.203779 0.837321
-0.00138733 -0.255803 0.806159
-0.0271986 -0.194036 0.844406
-0.0174262 -0.196275 0.843764
-0.00393158 -0.241773 0.809405
-0.0022314 -0.234593 0.820793
-0.00918804 -0.224312 0.819966
-0.00303653 -0.272581 0.792776
-0.00599926 -0.260603 0.794844
-0.00815486 -0.221337 0.82856
-0.0265722 -0.274928 0.774965
-0.0104187 -0.281758 0.777836
-0.00393615 -0.281988 0.78642
-0.00198956 -0.267653 0.800007
-0.00719595 -0.235544 0.812771
-0.0234851 -0.292652 0.779096
-0.00388749 -0.292058 0.792322
-0.00367054 -0.281011 0.797419
-0.00225972 -0.249615 0.812876
-0.00944784 -0.266072 0.788533
-0.00184645 -0.267087 0.812028
-0.00144647 -0.244436 0.818875
-0.0148711 -0.215334 0.827861
-0.00182674 -0.278027 0.817043
-0.0112149 -0.255286 0.799339
-0.00930856 -0.27316 0.784035
-0.00489205 -0.229188 0.827449
-0.0205757 -0.229282 0.814209
0.000190012 -0.28929 0.801279
-0.0174864 -0.213112 0.835103
-0.00202914 -0.240813 0.827744
-0.0028279 -0.275023 0.806653
-0.00768958 -0.256955 0.83001
-0.00211406 -0.259622 0.816903
-0.0019886 -0.249171 0.827414
-0.013496 -0.289262 0.78586
-0.00590653 -0.299958 0.817409
-0.00184701 -0.2838 0.8091
-0.0178442 -0.276653 0.771529
-0.00746574 -0.290076 0.817525
-0.000717227 -0.299617 0.800751
-0.00272116 -0.253743 0.821728
-0.000270736 -0.2945 0.809977
-0.0251338 -0.203629 0.847347
-0.0122603 -0.221401 0.836478
-0.033773 -0.208304 0.851758
-0.0232205 -0.212692 0.843411
-0.0068708 -0.302788 0.806803
