ply
    format ascii 1.0           
    element vertex 64
    property double x           
    property double y           
    property double z           
    end_header
0.00550575 -0.268366 0.664056
0.020643 -0.258736 0.670805
-0.00397611 -0.188208 0.742961
0.0137185 -0.230649 0.69651
0.0181944 -0.244571 0.683692
-0.0276988 -0.280957 0.661054
0.024495 -0.207325 0.71617
-0.0564455 -0.24712 0.672255
-0.0598515 -0.25964 0.661582
0.00030478 -0.30438 0.67276
-0.00422442 -0.223621 0.701723
-0.0450502 -0.273043 0.660335
-0.0115112 -0.290173 0.665397
-0.0109675 -0.237856 0.693658
-0.00985977 -0.299819 0.651982
0.0240373 -0.276363 0.675984
0.00723926 -0.203596 0.717328
0.0117719 -0.219527 0.71059
-0.0424204 -0.255402 0.663756
-0.00685797 -0.213801 0.714604
-0.0423656 -0.292082 0.657662
-0.0373158 -0.250676 0.679564
0.0349831 -0.240381 0.728905
-0.0242607 -0.230145 0.706802
-0.0331569 -0.266901 0.672767
-0.0249137 -0.300825 0.656857
0.00775238 -0.284831 0.674472
0.0241793 -0.233563 0.713096
-0.0205872 -0.318679 0.660058
0.0182898 -0.306313 0.696272
-0.00695329 -0.319401 0.673387
-0.0267991 -0.250523 0.694579
-0.0391155 -0.239701 0.703841
0.0293659 -0.223148 0.726903
0.0326864 -0.288002 0.712939
0.0243848 -0.246816 0.701029
0.0116061 -0.3259 0.720425
0.0356459 -0.262977 0.682898
0.0181801 -0.176812 0.775111
0.0290034 -0.255072 0.719586
0.0217857 -0.199952 0.749554
-0.005743 -0.326843 0.693555
0.0373139 -0.261072 0.702181
0.0270979 -0.207113 0.733847
0.000956962 -0.310606 0.689311
0.00245251 -0.182092 0.768053
0.00189023 -0.251285 0.674437
0.0256265 -0.307429 0.737647
0.0182841 -0.294053 0.754
0.0159644 -0.167067 0.760842
-0.00977198 -0.325549 0.719082
0.00702827 -0.297326 0.685508
0.0129882 -0.320395 0.73798
0.0191964 -0.287446 0.691421
0.0260348 -0.276154 0.703681
0.0261021 -0.273204 0.723739
0.0235376 -0.303038 0.719665
0.0206338 -0.261955 0.741033
0.0183543 -0.312686 0.753583
0.0169385 -0.290734 0.736147
0.0199386 -0.221621 0.742268
0.0204036 -0.243519 0.747158
-0.00714996 -0.32903 0.695292
0.00586439 -0.23255 0.75084
