ply
    format ascii 1.0           
    element vertex 64
    property double x           
    property double y           
    property double z           
    end_header
-0.0629144 -0.181202 0.874375
-0.0321248 -0.283445 0.778112
-0.0213415 -0.207395 0.849255
-0.00145904 -0.278299 0.810578
-0.0492029 -0.321266 0.757674
-0.0530036 -0.226194 0.822189
-0.0438766 -0.155575 0.904625
-0.0154428 -0.271515 0.791522
-0.071672 -0.296937 0.76307
-0.0929101 -0.286036 0.756909
-0.0289012 -0.236372 0.821089
-0.0429257 -0.327885 0.786144
-0.0893022 -0.310095 0.754476
-0.0580211 -0.243619 0.808693
-0.0141336 -0.294028 0.798134
-0.0892235 -0.264433 0.7628
-0.110503 -0.26844 0.755453
-0.0547782 -0.309613 0.773989
-0.0453583 -0.168203 0.922419
-0.107244 -0.252457 0.768476
-0.0144549 -0.249872 0.867216
-0.0519799 -0.26241 0.796635
-0.0435273 -0.201297 0.847183
-0.0214344 -0.25406 0.806502
-0.0663085 -0.344718 0.764061
-0.0361874 -0.222097 0.83882
-0.0866203 -0.258081 0.7837
-0.0223324 -0.240405 0.845246
-0.0047383 -0.275893 0.834492
-0.0151699 -0.309464 0.845259
-0.033813 -0.303859 0.791209
-0.0817676 -0.27955 0.776619
-0.0293776 -0.331204 0.820151
-0.018968 -0.257336 0.82974
-0.0454938 -0.355596 0.846451
-0.0194758 -0.227566 0.863764
-0.0383026 -0.318949 0.803788
-0.0330095 -0.33334 0.872313
-0.0200041 -0.267876 0.853397
-0.0238565 -0.207269 0.872068
-0.053078 -0.346011 0.784363
-0.0475434 -0.335285 0.806469
-0.0636592 -0.173921 0.908493
-0.0488416 -0.349005 0.868706
-0.071806 -0.354157 0.83915
-0.0195858 -0.293891 0.832197
-0.0251146 -0.307616 0.814821
-0.0259908 -0.290393 0.856869
-0.0370685 -0.276213 0.876657
-0.0471606 -0.339809 0.889474
-0.0608166 -0.357468 0.810341
-0.041405 -0.312282 0.868654
-0.0296617 -0.32728 0.850133
-0.0341921 -0.197645 0.890201
-0.0459923 -0.316849 0.890559
-0.0381617 -0.252842 0.884953
-0.0366381 -0.224933 0.878999
-0.0421109 -0.155469 0.904489
-0.0651104 -0.171201 0.907527
-0.0647052 -0.214701 0.879029
-0.0528412 -0.240894 0.890054
-0.079603 -0.356025 0.833423
-0.062689 -0.255187 0.873168
-0.0499942 -0.334906 0.806437
