ply
    format ascii 1.0           
    element vertex 82
    property double x           
    property double y           
    property double z           
    end_header
-0.296429 -0.843823 2.9025
-0.530114 -1.03311 2.95433
-0.405426 -0.970922 2.89549
-0.207684 -0.278531 3.25575
-0.150204 -1.1679 2.78698
-0.262252 -0.287438 3.35806
-0.174678 -0.144277 3.38778
-0.504159 -1.12273 2.91313
-0.344792 -0.819708 2.99295
-0.221498 -0.686779 3.02552
-0.297529 -0.406504 3.21072
-0.468041 -1.03761 2.87966
-0.515514 -0.990125 3.02581
-0.233046 -1.11772 2.83559
-0.0853842 -0.178648 3.33178
-0.199926 -0.367134 3.19262
-0.417895 -0.792158 3.05745
-0.388546 -1.07008 2.83809
-0.241214 -1.22435 2.82789
-0.300489 -0.482353 3.16132
-0.26159 -0.942664 2.89267
-0.323585 -0.558427 3.13012
-0.345017 -0.741871 3.04913
-0.419565 -0.875665 3.01472
-0.351516 -0.916916 2.94877
-0.429544 -0.95372 2.99298
-0.360947 -0.687247 3.1271
-0.307472 -1.06216 2.87724
-0.229659 -0.605486 3.06643
-0.214766 -0.443679 3.15653
-0.222505 -0.518373 3.09388
-0.389994 -1.2484 2.90158
-0.0453373 -1.06196 2.90216
0.0884653 -1.04391 2.97073
0.0551594 -1.10075 2.88157
-0.119416 -0.304653 3.20384
-0.181875 -0.230468 3.33293
-0.260524 -0.77351 3.02217
-0.055306 -0.433157 3.24109
-0.129099 -1.07941 2.85078
-0.331913 -1.32432 2.92072
-0.41828 -1.15882 2.89782
-0.326684 -1.152 2.86639
-0.291945 -0.638087 3.12599
-0.132149 -0.851245 3.0353
-0.214256 -1.03179 2.89977
-0.130435 -0.490289 3.13317
-0.0550569 -0.9101 3.06563
-0.0593937 -0.60865 3.19438
-0.163506 -0.748759 3.0353
-0.0480042 -1.15203 2.84042
-0.167594 -0.95656 2.94609
-0.214576 -0.875735 2.94413
-0.101285 -0.719325 3.08259
-0.153186 -0.649428 3.09167
0.137788 -1.13637 2.93937
0.0341825 -1.20409 2.86983
-0.0459922 -0.336226 3.25251
-0.0442361 -1.03626 2.99383
-0.0295052 -1.27593 2.9086
-0.110453 -1.25038 2.84173
-0.160153 -0.584116 3.15645
-0.14524 -0.44833 3.22365
-0.081161 -0.514781 3.21343
-0.101946 -0.84851 3.13302
-0.142562 -0.98693 3.03462
0.119599 -1.11917 3.06192
0.0525619 -1.26339 2.95474
-0.0595002 -0.509848 3.30692
-0.0425055 -0.944903 3.15333
-0.115606 -0.770157 3.25686
-0.160273 -0.781775 3.11536
-0.101907 -0.703774 3.17215
-0.0888348 -0.198213 3.43681
-0.108858 -0.897181 3.2194
-0.0412548 -0.3135 3.38388
-0.0522191 -0.406775 3.33007
-0.0996198 -0.583481 3.31554
-0.0969535 -0.999169 3.109
-0.0970332 -0.663789 3.26488
0.107785 -1.20387 3.00403
-0.103353 -0.850432 3.13672
