ply
    format ascii 1.0           
    element vertex 83
    property double x           
    property double y           
    property double z           
    end_header
0.0093868 -0.163286 0.931507
-0.0239295 -0.379811 0.808757
-0.00582087 -0.398075 0.809449
-0.0102181 -0.147691 0.930262
-0.0839494 -0.360648 0.78973
-0.00740396 -0.20155 0.888143
-0.0496147 -0.35877 0.789864
-0.0139806 -0.277523 0.850545
-0.0303203 -0.222498 0.867849
-0.0694841 -0.396524 0.800544
-0.0244724 -0.311785 0.815564
-0.0102837 -0.237344 0.864806
-0.0342461 -0.175122 0.913527
-0.0146823 -0.257291 0.857774
-0.0367201 -0.239101 0.858763
-0.0102674 -0.179708 0.900256
-0.0527742 -0.333508 0.799608
-0.0115002 -0.168054 0.918988
0.00731117 -0.377385 0.84633
0.0258198 -0.379743 0.87663
-0.0303017 -0.203838 0.878527
-0.0668889 -0.344933 0.787687
-0.0389797 -0.361047 0.80795
-0.0110135 -0.218513 0.878642
-0.00987841 -0.319876 0.862499
-0.023494 -0.336644 0.817413
-0.0418469 -0.300307 0.826816
-0.0518729 -0.265125 0.85184
-0.0880126 -0.337868 0.795816
-0.0612854 -0.287255 0.8304
-0.00330271 -0.377372 0.825244
-0.0313216 -0.403142 0.805229
-0.0453334 -0.323241 0.81714
-0.0268894 -0.294407 0.844154
0.00909162 -0.224355 0.915583
-0.0436735 -0.281034 0.83849
-0.0618475 -0.307246 0.820691
0.00398886 -0.235747 0.884334
-0.0350297 -0.258928 0.860116
-0.0219536 -0.359601 0.824183
-0.0685268 -0.374739 0.79699
-0.090542 -0.326979 0.812176
0.0080302 -0.399208 0.83312
-0.0677326 -0.324929 0.815774
-0.0472925 -0.380284 0.802817
0.00169257 -0.264987 0.904543
0.0266376 -0.393251 0.854601
0.000460039 -0.290873 0.873322
-0.00363668 -0.337017 0.877896
-0.0130907 -0.34408 0.839644
0.0105844 -0.192058 0.900828
-0.0159431 -0.322929 0.833944
-0.0442025 -0.343866 0.811693
-0.00869652 -0.294774 0.859176
-0.0065911 -0.271313 0.872374
-0.0665029 -0.41742 0.811165
-0.0108813 -0.253502 0.88481
-0.0103716 -0.417156 0.82445
-0.00533187 -0.426243 0.847748
0.0161588 -0.202546 0.91963
0.00164088 -0.241764 0.906301
-4.41547e-06 -0.289767 0.877053
0.0169694 -0.415353 0.848764
-0.0210111 -0.350073 0.860491
0.0325316 -0.404732 0.876284
0.00613522 -0.427129 0.867757
-0.00191064 -0.368434 0.864507
0.0158727 -0.395337 0.89774
0.0123966 -0.16196 0.931128
0.0044564 -0.194322 0.945811
-0.0187335 -0.299906 0.875007
-0.0144391 -0.342588 0.896266
-0.0157889 -0.317805 0.885874
-0.0281172 -0.29552 0.908491
-0.0105764 -0.284066 0.894118
-0.00688067 -0.222205 0.900475
-0.00554999 -0.23839 0.927579
-0.0111214 -0.211226 0.93684
0.0133976 -0.415425 0.884554
-0.0229368 -0.352592 0.879935
-0.0155794 -0.273152 0.913568
-0.0172105 -0.252665 0.923808
-0.00346474 -0.163118 0.951306
