ply
    format ascii 1.0           
    element vertex 82
    property double x           
    property double y           
    property double z           
    end_header
-0.0387881 -0.201207 0.585768
-0.0523746 -0.174263 0.607532
-0.0365304 -0.185588 0.591891
-0.069166 -0.0988357 0.639872
-0.0575998 -0.184403 0.596805
-0.0617977 -0.206891 0.581328
-0.0504919 -0.122324 0.621825
-0.0733654 -0.217462 0.579871
-0.0550665 -0.0993382 0.632759
-0.0806664 -0.0917739 0.646414
-0.0275424 -0.192998 0.585067
-0.0400093 -0.209699 0.55917
-0.0465631 -0.161359 0.602685
-0.0228892 -0.196779 0.572406
-0.0731916 -0.0699632 0.643826
-0.0193462 -0.183282 0.578257
-0.0454158 -0.133842 0.606469
-0.0646876 -0.14653 0.616132
-0.0450872 -0.174799 0.594143
-0.0591821 -0.154129 0.605802
-0.0649551 -0.12356 0.630161
-0.0540464 -0.112455 0.628785
-0.0872622 -0.0658901 0.650649
-0.0607743 -0.217326 0.569686
-0.110651 -0.186407 0.580331
-0.0467053 -0.147716 0.606418
-0.051314 -0.19639 0.583513
-0.0683634 -0.0833521 0.644846
-0.0901734 -0.195406 0.583691
-0.104621 -0.201885 0.580979
-0.0358379 -0.162242 0.593497
-0.0667372 -0.109246 0.633777
-0.0636894 -0.134682 0.622242
-0.089081 -0.21061 0.57773
-0.0490266 -0.214978 0.548719
-0.0352444 -0.202161 0.569906
-0.0786381 -0.160404 0.596291
-0.0770304 -0.202258 0.585194
-0.072261 -0.180028 0.59105
-0.0227498 -0.171391 0.577041
-0.0650844 -0.172625 0.600683
-0.064759 -0.191748 0.585381
-0.0912342 -0.099365 0.628488
-0.0735454 -0.151182 0.608109
-0.0484011 -0.205428 0.573759
-0.075668 -0.135893 0.615478
-0.078802 -0.116685 0.630351
-0.101461 -0.212028 0.56949
-0.0804206 -0.218698 0.565698
-0.0903458 -0.16252 0.587134
-0.0905356 -0.120307 0.611487
-0.117761 -0.198531 0.572358
-0.092039 -0.0894389 0.638993
-0.092998 -0.213246 0.557385
-0.0913056 -0.182218 0.578378
-0.0749793 -0.122168 0.617336
-0.0870662 -0.109626 0.620887
-0.0778558 -0.102283 0.627623
-0.083272 -0.143047 0.608032
-0.11681 -0.182613 0.563706
-0.0839583 -0.148569 0.58776
-0.105787 -0.207621 0.555374
-0.0949092 -0.0720674 0.630353
-0.082704 -0.126461 0.586421
-0.0927753 -0.154828 0.575145
-0.0908371 -0.0977367 0.613379
-0.0745584 -0.144554 0.597349
-0.0851118 -0.164963 0.572756
-0.0837633 -0.131159 0.601902
-0.0877776 -0.0549241 0.639107
-0.0926097 -0.0864039 0.623581
-0.113479 -0.196737 0.558063
-0.0856285 -0.116297 0.598512
-0.0796511 -0.172983 0.579974
-0.0842666 -0.102554 0.60351
-0.0798888 -0.213919 0.550738
-0.0740205 -0.114172 0.584296
-0.0731459 -0.159595 0.528106
-0.080014 -0.16388 0.55679
-0.0638833 -0.182528 0.525337
-0.0786934 -0.163991 0.540747
-0.0684015 -0.170831 0.530368
