ply
    format ascii 1.0           
    element vertex 79
    property double x           
    property double y           
    property double z           
    end_header
-0.464774 -0.759783 2.87472
-0.469783 -0.871844 2.88752
-0.448089 -1.05113 2.7557
-0.315956 -1.0878 2.68021
-0.413345 -1.20102 2.68227
-0.489179 -1.17088 2.90405
-0.478755 -1.00579 2.84266
-0.531328 -1.30401 2.76203
-0.409685 -0.639157 2.86524
-0.420175 -0.829274 2.8273
-0.44774 -1.10718 2.84975
-0.51146 -1.34171 2.68242
-0.315996 -0.938199 2.71858
-0.386462 -0.721449 2.82511
-0.458933 -0.762141 2.97651
-0.418345 -0.463647 3.0191
-0.400171 -0.965408 2.75626
-0.363135 -0.365357 3.01567
-0.441316 -1.28612 2.65832
-0.363399 -1.34508 2.63721
-0.44162 -1.25439 2.92063
-0.336889 -0.472814 2.96065
-0.44291 -0.592161 3.00692
-0.41888 -1.16881 2.77616
-0.466871 -1.24623 2.75132
-0.457524 -1.11346 2.96604
-0.411725 -0.505324 3.08142
-0.362116 -0.894334 2.77076
-0.427427 -0.926159 2.83029
-0.350561 -0.798288 2.79729
-0.421419 -1.19159 2.86095
-0.24705 -1.36478 2.61623
-0.341517 -1.25157 2.64889
-0.405851 -0.576684 2.90793
-0.220232 -1.21295 2.64461
-0.444049 -0.699822 2.92294
-0.449314 -0.949116 2.92735
-0.439286 -0.628411 2.94184
-0.200861 -1.29039 2.60322
-0.245048 -1.13385 2.67275
-0.370771 -1.39295 2.73191
-0.288589 -1.30048 2.62301
-0.332202 -1.02643 2.73466
-0.170961 -1.08432 2.68743
-0.288421 -0.831254 2.79226
-0.355305 -1.14756 2.71569
-0.161863 -1.02391 2.73852
-0.291132 -0.746964 2.82482
-0.159354 -1.16832 2.67823
-0.244486 -0.985663 2.74797
-0.312449 -0.668637 2.85577
-0.379314 -1.09708 2.7809
-0.313347 -0.395234 3.06979
-0.248076 -1.06643 2.72246
-0.444403 -0.401896 3.06998
-0.404496 -0.340046 3.07779
-0.332487 -0.588767 2.88357
-0.26552 -0.636771 2.90555
-0.216991 -0.901148 2.85388
-0.0859508 -1.21704 2.7499
-0.112696 -1.14442 2.71922
-0.234833 -0.712705 2.88015
-0.423931 -1.17983 2.82078
-0.274592 -0.481907 3.01466
-0.271199 -0.558367 2.94789
-0.258406 -0.921337 2.79304
-0.247986 -0.82071 2.85394
-0.332005 -0.326428 3.10518
-0.109894 -1.12996 2.80059
-0.248236 -1.36606 2.61269
-0.170664 -1.24486 2.70814
-0.218527 -0.858776 2.9334
-0.246999 -0.602007 3.028
-0.529769 -1.28615 2.74155
-0.163614 -1.33032 2.68862
-0.239233 -0.780847 2.91227
-0.14082 -1.05496 2.82451
-0.242368 -0.674296 2.98742
-0.265598 -0.63437 2.92307
