ply
    format ascii 1.0           
    element vertex 86
    property double x           
    property double y           
    property double z           
    end_header
-0.0579917 -0.400016 0.837515
-0.00831089 -0.193084 0.968789
-0.0715881 -0.358725 0.848449
0.0170459 -0.397924 0.874564
-0.0958163 -0.345088 0.851942
-0.00118475 -0.255478 0.921986
0.0272731 -0.318592 0.902419
0.0429558 -0.38154 0.88163
0.0225481 -0.273399 0.924988
-0.0268271 -0.249451 0.932778
-0.0887139 -0.4759 0.868356
-0.0101637 -0.349513 0.888295
-0.0345432 -0.331277 0.883754
0.015228 -0.439371 0.886847
0.0173941 -0.222505 0.946575
-0.0385882 -0.35769 0.869241
0.0116737 -0.297968 0.913653
-0.0137751 -0.307276 0.900798
0.0141966 -0.342642 0.900267
-0.00360524 -0.171864 0.987367
-0.0484902 -0.374945 0.848026
-0.0312173 -0.408837 0.844423
-0.0294045 -0.21916 0.957629
0.0276247 -0.368913 0.90436
-0.0243122 -0.385964 0.862408
0.0213901 -0.187963 0.9785
-0.0200781 -0.436397 0.843787
0.054302 -0.354359 0.921509
0.00152745 -0.153628 1.00768
-0.0400861 -0.459549 0.845468
0.0346224 -0.41614 0.891351
-0.0341675 -0.275588 0.927784
-0.0929999 -0.431917 0.866357
-0.0873199 -0.331761 0.87455
-0.00766371 -0.236225 0.947521
-0.0506647 -0.431193 0.84406
0.0206344 -0.250939 0.944258
0.0719036 -0.426711 0.946842
0.0407919 -0.272017 0.947667
-0.00408739 -0.142674 1.03095
0.003579 -0.380414 0.893364
-0.00253102 -0.463576 0.888038
0.0469952 -0.444767 0.899513
-0.0603006 -0.333538 0.899962
-0.106153 -0.369903 0.85534
0.0344764 -0.241724 0.969436
-0.0175687 -0.418606 0.86654
0.0565415 -0.381591 0.93179
-0.0677604 -0.35221 0.879385
0.051941 -0.422034 0.920491
0.0320079 -0.339894 0.919284
-0.0117849 -0.401394 0.885263
0.036356 -0.225525 0.990005
0.0262891 -0.205515 0.999928
-0.0270217 -0.472266 0.870183
0.0324971 -0.295431 0.939445
0.0451933 -0.295013 0.965057
0.0195708 -0.48387 0.878266
0.0360293 -0.315938 0.928162
0.041336 -0.321166 0.962207
0.0194023 -0.479717 0.907678
-0.0167622 -0.446758 0.869429
0.0522684 -0.407347 0.959098
0.0448253 -0.395317 0.90788
0.0565292 -0.364084 0.953224
0.0462538 -0.338642 0.942603
0.0280224 -0.258123 1.00138
0.0558196 -0.449022 0.938275
0.0536921 -0.460196 0.977181
0.0120628 -0.191058 1.03459
0.0280596 -0.490044 0.937349
0.0151476 -0.161862 1.03427
0.0378262 -0.463 0.921966
0.0402302 -0.467914 0.952281
0.0623514 -0.431021 0.975063
0.0315854 -0.270345 0.977887
0.0239022 -0.234166 1.01676
0.0226387 -0.488595 0.969467
0.0173431 -0.5141 0.956657
-0.00106347 -0.395853 0.992448
0.0169355 -0.179165 1.00617
0.000366818 -0.154145 1.00735
0.0288272 -0.205747 1.00493
0.0426064 -0.441347 0.991893
0.013922 -0.36878 0.985883
0.0333283 -0.374942 0.965253
