ply
    format ascii 1.0           
    element vertex 91
    property double x           
    property double y           
    property double z           
    end_header
-0.511831 0.000361235 5.3698
-0.115528 -1.00332 4.79795
-0.352961 -0.336505 5.23762
-0.0125815 -1.9013 4.83718
-0.351075 0.363665 5.48319
-0.715295 -0.783343 5.23577
-0.479595 0.610517 5.79498
-0.298018 -0.0826131 5.27085
-0.268797 -1.22023 4.87233
-1.24361 -1.10612 5.30777
-0.781721 -1.97973 5.12496
-0.924227 -1.48815 4.98706
-0.759354 -2.19726 5.32717
-0.553637 -1.67783 4.82502
-0.10857 -1.54446 4.94627
-0.491731 -0.861315 5.13404
-1.0635 -1.16337 5.15307
-0.872704 -1.24169 5.036
-0.267796 -0.492931 5.0644
-0.561595 -0.499889 5.26574
-0.293755 -0.725899 5.10442
-0.692886 -1.47924 4.89742
-0.409123 0.829673 5.91942
-0.609499 -1.92234 4.9297
-1.11205 -0.936999 5.43922
-0.319222 1.03286 6.05602
-1.08286 -1.40721 5.15822
-0.927624 -1.8221 5.34236
-0.744339 -1.04308 5.15004
0.0849743 -0.689265 5.03053
-0.631689 -0.235106 5.58661
-0.120168 -0.908206 5.03836
-0.76417 -1.71446 4.97705
-0.254032 0.730014 5.7121
-0.285757 -1.09402 5.10759
-0.273963 0.131505 5.42218
-0.0730845 0.0106372 5.33562
-0.615483 -1.24453 5.00348
-1.23297 -1.34154 5.37075
-0.0279877 -1.29311 4.8915
-0.468751 -1.49168 4.97842
-0.911273 -1.06481 5.35088
0.502917 -1.18846 5.0538
-0.0847522 0.282973 5.54515
0.22314 -0.88678 5.06627
-0.0945167 -0.632146 5.1441
-0.00635103 0.464335 5.68402
-0.138412 -1.79489 5.04059
0.135659 -1.81301 5.02483
0.241004 -1.24885 4.984
-0.36665 -1.9575 5.02548
0.104562 -0.549445 5.22636
-0.107096 -0.22483 5.31282
0.432731 -1.41257 5.05931
-0.0844518 -0.405137 5.19106
0.133214 -0.378476 5.394
-0.0452783 0.63425 5.86099
-0.374751 -1.71741 4.98659
0.0975201 -0.145441 5.42198
0.288688 -0.714147 5.23092
0.0655574 -1.06829 4.95514
0.408549 -1.06553 5.24623
0.36356 -1.82426 5.17412
0.637478 -1.45827 5.33464
0.0880003 0.186568 5.78531
0.158103 -1.47253 4.86506
-0.166959 0.844256 5.94344
-0.0130254 0.783266 6.16002
0.271043 -1.60556 5.03875
0.477628 -2.00208 5.32801
-0.0753114 1.06286 6.18054
0.457678 -1.58611 5.22057
0.608329 -1.19688 5.28121
0.0689752 0.405959 5.93103
0.346552 -1.01102 5.57992
0.520676 -1.76619 5.39883
0.264805 -2.15172 5.2886
0.201707 -0.604055 5.47624
0.396671 -1.84739 5.88888
0.60789 -1.29725 5.4802
0.212607 -0.823239 5.67556
0.232322 -0.845091 5.42218
0.283957 -2.04602 5.03251
-0.780482 -1.47779 4.91503
-0.217862 0.6658 6.3705
0.468791 -1.71415 5.67588
0.334511 -2.07954 5.78117
0.053641 -0.612205 5.74723
0.407106 -1.95087 5.56818
-0.068954 0.891704 6.37874
0.0763816 0.0369836 5.55739
