ply
    format ascii 1.0           
    element vertex 91
    property double x           
    property double y           
    property double z           
    end_header
-0.00475124 -0.377732 0.945085
-0.0130232 -0.451287 0.914674
-0.0444539 -0.257482 0.99907
-0.0437337 -0.23838 1.01798
-0.0201912 -0.357123 0.951839
-0.0309151 -0.316203 0.957284
-0.0554729 -0.384264 0.910512
0.00980309 -0.438002 0.928562
-0.0169169 -0.531485 0.914789
-0.0542324 -0.308193 0.958347
-0.0696177 -0.446534 0.859874
-0.0115606 -0.334972 0.965812
-0.0205958 -0.490289 0.923722
-0.0208317 -0.254857 1.01725
-0.0178099 -0.399183 0.938836
-0.0184016 -0.287133 0.985614
-0.0368986 -0.40352 0.921137
0.0113224 -0.413752 0.96862
-0.0435744 -0.221912 1.03832
-0.102752 -0.39194 0.864475
-0.0821039 -0.406917 0.868048
-0.0475704 -0.457031 0.872938
-0.0573734 -0.4088 0.895832
-0.039703 -0.363851 0.932284
-0.00856935 -0.425331 0.945397
-0.0622473 -0.28057 0.982697
-0.0619597 -0.424036 0.873154
-0.0446818 -0.436345 0.892223
-0.0167335 -0.313848 0.98362
-0.0679305 -0.476691 0.867791
-0.061732 -0.332467 0.951931
-0.0602001 -0.503914 0.870054
-0.040145 -0.484021 0.874839
-0.00306292 -0.470009 0.933974
-0.110211 -0.474024 0.874766
-0.00152295 -0.335384 0.991314
-0.100372 -0.380423 0.887895
0.0146428 -0.483476 0.993842
0.00361125 -0.497894 0.943654
-0.114975 -0.414448 0.864075
-0.0419301 -0.297573 0.979592
-0.0279499 -0.433496 0.928211
-0.0425694 -0.467661 0.896701
-0.038325 -0.51135 0.918838
-0.0530843 -0.210612 1.05818
-0.0107411 -0.306674 1.01056
0.00444064 -0.477247 0.96479
-0.00381597 -0.376281 0.971036
0.00845576 -0.439628 0.977712
-0.00743528 -0.398309 0.961493
-0.0841135 -0.399801 0.8944
-0.041737 -0.452095 0.91638
-0.0133479 -0.291822 1.03003
-0.00457609 -0.357407 1.00765
-0.0562296 -0.5171 0.895849
-0.0241148 -0.272826 1.03817
-0.0404466 -0.231604 1.06592
-0.02485 -0.528373 0.942385
-0.0454559 -0.494402 0.899028
-0.00892835 -0.381926 1.00317
-0.00425581 -0.463951 1.00027
0.00328455 -0.451454 0.952488
0.00335438 -0.42347 0.997966
-0.00876577 -0.356729 0.980905
-0.000609356 -0.398697 0.986158
-0.0186367 -0.51477 1.01687
0.000934013 -0.503024 0.98079
-0.03205 -0.246432 1.04111
-0.0111968 -0.514447 0.960904
-0.0174532 -0.519397 0.988662
-0.0171404 -0.334111 1.01609
-0.0011986 -0.486812 1.01634
-0.0325931 -0.299112 1.04995
-0.0272992 -0.321615 1.03657
-0.0260231 -0.539087 0.971113
-0.0422558 -0.560365 0.984856
-0.0435892 -0.258599 1.06484
-0.0382123 -0.450287 1.01514
-0.0191176 -0.532391 0.915455
-0.0401761 -0.537162 0.998301
-0.0234167 -0.27276 1.04189
-0.0390542 -0.510079 0.919216
-0.0922253 -0.53157 1.01514
-0.0545687 -0.56567 0.959233
-0.0465805 -0.423801 1.01412
-0.0259807 -0.494253 1.02482
-0.052181 -0.451747 0.869199
-0.0246784 -0.560021 0.949119
-0.0216535 -0.431601 1.0013
-0.0545212 -0.360783 1.01812
-0.0240446 -0.405005 1.00602
