ply
    format ascii 1.0           
    element vertex 95
    property double x           
    property double y           
    property double z           
    end_header
-0.073532 -0.695485 1.12989
-0.051769 -0.535083 1.22639
-0.0351349 -0.495285 1.2239
-0.0900382 -0.687128 1.15456
-0.0414225 -0.469593 1.23467
0.039348 -0.64932 1.10474
-0.0444053 -0.648924 1.14262
-0.0177878 -0.634636 1.14164
-0.0558475 -0.604618 1.18207
0.000707964 -0.704998 1.09717
-0.108002 -0.74567 1.07203
-0.0610819 -0.584676 1.20222
-0.02182 -0.550647 1.18587
-0.0358539 -0.569629 1.20141
0.0190438 -0.66675 1.1114
0.0197197 -0.682626 1.09095
-0.025503 -0.711725 1.10425
-0.033657 -0.613553 1.16512
-0.0662869 -0.642453 1.15781
-0.0941378 -0.711567 1.09644
-0.0160858 -0.660174 1.12576
-0.0557181 -0.418643 1.23966
-0.00304047 -0.683421 1.11519
-0.0429623 -0.731459 1.09167
-0.0879554 -0.65887 1.14555
-0.0232353 -0.568252 1.16494
-0.0500801 -0.446337 1.2437
-0.0378834 -0.73887 1.06315
-0.0680464 -0.629563 1.1812
-0.0601885 -0.493533 1.24242
-0.102137 -0.69917 1.12243
-0.126055 -0.713724 1.10743
-0.0326546 -0.686635 1.11804
0.0360559 -0.658203 1.07888
-0.111219 -0.644596 1.16628
-0.164274 -0.675403 1.11937
-0.0392872 -0.53691 1.20136
-0.068522 -0.667176 1.12696
-0.0866213 -0.571839 1.20648
-0.0194254 -0.719592 1.07634
0.0252782 -0.626995 1.11136
-0.0626481 -0.556235 1.2101
-0.0837272 -0.53602 1.21594
-0.128626 -0.654703 1.14602
-0.0513391 -0.705163 1.09773
-0.0911865 -0.720046 1.06769
0.00154896 -0.643504 1.10987
-0.090926 -0.511689 1.22154
-0.0889184 -0.631619 1.16394
-0.060092 -0.682673 1.10726
-0.123624 -0.721433 1.06479
-0.084573 -0.590141 1.1883
-0.133482 -0.686376 1.11903
-0.0664214 -0.732221 1.05419
-0.111706 -0.617771 1.16467
-0.11319 -0.591719 1.16766
-0.0880684 -0.611664 1.18021
-0.107702 -0.573766 1.18676
-0.084227 -0.484478 1.22032
-0.0636354 -0.719312 1.07671
-0.111442 -0.67712 1.13738
-0.134624 -0.627798 1.1502
-0.0778851 -0.434098 1.2367
-0.155963 -0.690821 1.09716
-0.150965 -0.64983 1.11692
-0.103342 -0.521427 1.19024
-0.086538 -0.452187 1.21505
-0.181042 -0.669101 1.07532
-0.138926 -0.706393 1.08227
-0.15038 -0.708955 1.05251
-0.159618 -0.688023 1.0702
-0.0976486 -0.547844 1.19231
-0.10125 -0.495664 1.2003
-0.175663 -0.655511 1.10141
-0.163855 -0.683232 1.0395
-0.107842 -0.7456 1.07048
-0.162585 -0.707077 1.02372
-0.0864737 -0.486689 1.22481
-0.137701 -0.721815 1.01363
-0.0756045 -0.42623 1.20957
-0.174851 -0.644326 1.07731
-0.122435 -0.595971 1.10872
-0.127995 -0.620104 1.1247
-0.090854 -0.546842 1.14363
-0.0630745 -0.444265 1.18989
-0.146357 -0.645888 0.998115
-0.15716 -0.656104 1.02554
-0.139277 -0.670743 0.984169
-0.10803 -0.569305 1.15113
-0.1177 -0.598271 1.13989
-0.153423 -0.68177 1.0124
-0.0976814 -0.575896 1.12017
-0.104164 -0.496372 1.19997
-0.144558 -0.617144 1.09976
-0.0951833 -0.539079 1.17385
