ply
    format ascii 1.0           
    element vertex 71
    property double x           
    property double y           
    property double z           
    end_header
-0.241778 -0.153637 1.62703
-0.336533 -0.429714 1.4808
-0.226141 -0.231197 1.56647
-0.318875 -0.538023 1.39985
-0.251291 -0.275363 1.56824
-0.381312 -0.582962 1.43619
-0.410115 -0.548795 1.45669
-0.375826 -0.488637 1.5101
-0.322341 -0.459172 1.45964
-0.269233 -0.491889 1.39605
-0.293018 -0.460822 1.41999
-0.303138 -0.394255 1.47675
-0.224275 -0.270889 1.52931
-0.283426 -0.341928 1.54976
-0.299252 -0.421397 1.44208
-0.379729 -0.492938 1.55555
-0.366425 -0.543055 1.43296
-0.409135 -0.589901 1.47504
-0.247731 -0.317703 1.54568
-0.242678 -0.452611 1.38556
-0.320756 -0.412397 1.51326
-0.291537 -0.377284 1.51951
-0.349654 -0.465128 1.53918
-0.384846 -0.522921 1.47879
-0.386014 -0.527143 1.53274
-0.303139 -0.493876 1.44729
-0.330028 -0.578151 1.42454
-0.3466 -0.517432 1.46182
-0.335004 -0.490879 1.48881
-0.252434 -0.435844 1.42591
-0.242351 -0.366364 1.50908
-0.221842 -0.522269 1.39922
-0.269864 -0.544995 1.3922
-0.216161 -0.343386 1.54408
-0.183735 -0.374422 1.53986
-0.220847 -0.48466 1.40655
-0.169212 -0.328805 1.54856
-0.270415 -0.317762 1.58001
-0.212901 -0.199557 1.63071
-0.303 -0.575969 1.38504
-0.31647 -0.531094 1.43556
-0.260976 -0.4106 1.46681
-0.201721 -0.446104 1.407
-0.200502 -0.156409 1.60032
-0.270374 -0.59347 1.40331
-0.209008 -0.408848 1.48672
-0.253634 -0.199509 1.6195
-0.167423 -0.421753 1.49903
-0.209217 -0.582592 1.4597
-0.220504 -0.424966 1.45296
-0.196347 -0.530765 1.4172
-0.231179 -0.523811 1.39157
-0.216857 -0.61866 1.48474
-0.192865 -0.272068 1.56415
-0.158445 -0.508061 1.52684
-0.155766 -0.550445 1.52603
-0.248477 -0.591963 1.43531
-0.186275 -0.453948 1.44344
-0.185785 -0.409273 1.58113
-0.182717 -0.540148 1.45741
-0.151389 -0.501597 1.56922
-0.202054 -0.620076 1.52635
-0.186011 -0.582261 1.53611
-0.144349 -0.542997 1.56912
-0.183183 -0.515063 1.49182
-0.190821 -0.494596 1.449
-0.190016 -0.47506 1.50367
-0.171216 -0.360048 1.58634
-0.171019 -0.451604 1.53278
-0.179537 -0.312995 1.59335
-0.230653 -0.653022 1.53828
