ply
    format ascii 1.0           
    element vertex 67
    property double x           
    property double y           
    property double z           
    end_header
-0.0766271 -0.39904 0.879673
-0.00450821 -0.111686 1.03084
0.0154427 -0.435615 0.913202
-0.0300337 -0.132611 1.01902
-0.0172482 -0.3721 0.894731
-0.0435722 -0.297919 0.952603
-0.00667298 -0.255806 0.972893
-0.0182601 -0.167736 1.00508
-0.0129386 -0.281233 0.957923
-0.0542862 -0.425269 0.881479
0.03548 -0.438598 0.956144
-0.0328168 -0.349061 0.921709
-0.0529097 -0.37641 0.889596
-0.0280698 -0.200533 0.996176
-0.0555988 -0.322431 0.933211
0.00399278 -0.150396 1.02282
-0.0204543 -0.326772 0.94547
0.00937827 -0.348746 0.960313
0.0240129 -0.130329 1.04266
-0.00562743 -0.405903 0.908875
0.00486337 -0.219386 1.00284
0.0235668 -0.319211 0.997913
-0.101244 -0.416321 0.877822
9.01804e-05 -0.375734 0.926474
-0.0545302 -0.227418 0.989031
-0.0357202 -0.404038 0.893229
-0.0837956 -0.440886 0.879752
-0.0514261 -0.461025 0.885419
-0.0203808 -0.236483 0.985269
0.00816705 -0.284827 0.987042
0.0245093 -0.235935 1.03018
0.0133699 -0.258079 1.00557
-0.0432089 -0.266343 0.965001
0.00497848 -0.189493 1.02001
-0.0603145 -0.196829 1.00076
0.0213362 -0.353385 0.996467
-0.064887 -0.357573 0.912088
0.0267239 -0.291577 1.01671
-0.0211839 -0.471256 0.913418
0.0111578 -0.39429 0.956954
-0.0448855 -0.169019 1.00833
-0.00571998 -0.309974 0.970636
-0.0986592 -0.389903 0.90172
0.0161108 -0.174045 1.05103
0.00458837 -0.113663 1.06507
-0.0492882 -0.151754 1.02461
0.0226711 -0.269337 1.04505
-0.0767526 -0.338564 0.929614
0.00379234 -0.209606 1.05622
0.00887397 -0.466163 0.935165
-0.0224849 -0.438092 0.897682
0.0322963 -0.376026 0.974247
0.0252196 -0.38615 1.00591
0.0107476 -0.145303 1.0693
0.0101908 -0.472162 0.972115
0.00443479 -0.328176 1.02916
-0.0147814 -0.319002 1.05806
-0.00794143 -0.234294 1.08132
-0.0144916 -0.358696 1.04479
-0.0166085 -0.454739 1.00692
-0.0280633 -0.48359 0.947863
-0.00199716 -0.40541 1.00415
-0.0264089 -0.279004 1.0693
0.00506033 -0.437043 0.983148
-0.00797119 -0.172947 1.07816
-0.025072 -0.203571 1.0847
-0.0303197 -0.485506 0.986749
