ply
    format ascii 1.0           
    element vertex 70
    property double x           
    property double y           
    property double z           
    end_header
-0.0570182 -0.165914 0.797928
-0.0738364 -0.284053 0.735181
-0.049583 -0.112602 0.81461
-0.0416158 -0.134398 0.808791
-0.042288 -0.262148 0.738585
-0.061975 -0.268473 0.738779
-0.0541637 -0.146146 0.801688
-0.0650772 -0.238001 0.763094
-0.0585511 -0.296048 0.733618
-0.0588514 -0.222576 0.772633
-0.0437395 -0.210256 0.773849
-0.00343277 -0.293516 0.768553
-0.0738924 -0.308268 0.735026
-0.0505973 -0.250651 0.754839
-0.0628406 -0.127569 0.810781
-0.0319887 -0.279811 0.745444
-0.0389279 -0.29981 0.740027
-0.0536303 -0.315828 0.735974
-0.0415099 -0.195155 0.781844
-0.0689773 -0.260081 0.754075
-0.0861226 -0.296533 0.7369
-0.0175385 -0.227407 0.79328
-0.0250847 -0.245763 0.773176
-0.017134 -0.294255 0.745896
-0.0364653 -0.173125 0.797553
-0.0491329 -0.281977 0.738373
-0.00918663 -0.258569 0.779301
-0.0318125 -0.120611 0.818906
-0.044202 -0.236697 0.767044
-0.0500264 -0.185975 0.790424
-0.0300204 -0.262159 0.754584
-0.0698959 -0.184305 0.796378
-0.0299145 -0.20978 0.788406
-0.0171448 -0.211397 0.803751
-0.0280747 -0.194044 0.798506
-0.0618198 -0.205282 0.781907
-0.0222136 -0.180138 0.811718
-0.0373989 -0.156121 0.807067
-0.0683348 -0.149461 0.804603
-0.0752596 -0.167413 0.80411
-0.0203676 -0.2712 0.771032
-0.0340975 -0.31801 0.748966
-0.0307888 -0.14602 0.824051
-0.0158116 -0.246776 0.792346
-0.0358312 -0.225543 0.779959
-0.0163912 -0.311602 0.758959
-0.0334173 -0.167343 0.82801
-0.0349262 -0.130673 0.834839
-0.0124314 -0.314364 0.779812
-0.0203303 -0.198914 0.820637
-0.0330588 -0.324987 0.768214
-0.0100246 -0.264588 0.797681
-0.0372816 -0.181803 0.84313
-0.0310036 -0.252905 0.822622
-0.0247908 -0.233563 0.812617
-0.0230353 -0.278118 0.798543
-0.0340614 -0.324974 0.76884
-0.0268863 -0.307554 0.801182
-0.0343069 -0.230398 0.830335
-0.0426345 -0.147545 0.841263
-0.0475071 -0.166456 0.846317
-0.0177615 -0.295409 0.786372
-0.0334353 -0.325705 0.790949
-0.0332967 -0.197118 0.836152
-0.0421276 -0.112825 0.834843
-0.0283167 -0.214384 0.816259
-0.0507552 -0.206064 0.838613
-0.0599526 -0.28886 0.807015
-0.0498591 -0.129393 0.847108
-0.0471341 -0.265497 0.818114
