ply
    format ascii 1.0           
    element vertex 71
    property double x           
    property double y           
    property double z           
    end_header
-0.430545 -0.571924 2.63721
-0.44601 -0.476713 2.49296
-0.146818 0.0396129 2.48272
-0.456321 -0.413806 2.54084
-0.28112 -0.184294 2.51217
-0.459906 -0.483914 2.56416
-0.464552 -0.551601 2.5281
-0.115503 0.0241337 2.54356
-0.235519 -0.151009 2.45767
-0.209461 -0.0638144 2.51669
-0.450274 -0.403805 2.60683
-0.320544 -0.277161 2.44648
-0.346629 -0.357574 2.44617
-0.108451 -0.035718 2.44581
-0.449565 -0.62076 2.50796
-0.308619 -0.250475 2.51644
-0.34172 -0.30835 2.51139
-0.410039 -0.411908 2.4903
-0.264403 -0.226156 2.45182
-0.412477 -0.37492 2.56274
-0.181475 -0.101014 2.46499
-0.354002 -0.337059 2.57781
-0.200622 -0.135014 2.52782
-0.369215 -0.364891 2.51496
-0.231624 -0.182696 2.56387
-0.433488 -0.459997 2.62318
-0.310152 -0.289742 2.57729
-0.392015 -0.570273 2.57325
-0.39729 -0.665918 2.51674
-0.149316 -0.110962 2.55956
-0.408169 -0.51498 2.60495
-0.256894 -0.243018 2.5667
-0.14516 -0.085892 2.40075
-0.358372 -0.418403 2.40934
-0.376906 -0.590393 2.42178
-0.429673 -0.542587 2.46956
-0.301586 -0.539838 2.38153
-0.304898 -0.385179 2.37494
-0.390669 -0.470677 2.44676
-0.225474 -0.225394 2.38554
-0.326984 -0.608825 2.37309
-0.26959 -0.337408 2.41202
-0.250962 -0.584375 2.3461
-0.279031 -0.454905 2.37292
-0.288276 -0.661106 2.40506
-0.329378 -0.479043 2.41685
-0.22912 -0.513538 2.36169
-0.398405 -0.664575 2.51937
-0.152449 -0.272326 2.40616
-0.227264 -0.642726 2.3796
-0.232282 -0.397894 2.3764
-0.10737 -0.19285 2.41439
-0.0864719 0.0354226 2.4825
-0.180354 -0.172872 2.40781
-0.222468 -0.285158 2.42808
-0.158287 -0.524373 2.37338
-0.0993474 -0.121801 2.44074
-0.121613 -0.325954 2.44045
-0.184157 -0.351392 2.41151
-0.148469 -0.57212 2.41314
-0.146562 0.0381513 2.48181
-0.343598 -0.30808 2.50863
-0.356183 -0.538512 2.45271
-0.461716 -0.552083 2.52979
-0.369613 -0.364663 2.51317
-0.457782 -0.48235 2.56416
-0.311031 -0.248622 2.51451
-0.451839 -0.403309 2.60312
-0.427584 -0.574182 2.64226
-0.118809 0.0211627 2.53944
-0.439043 -0.458395 2.61983
