ply
    format ascii 1.0           
    element vertex 68
    property double x           
    property double y           
    property double z           
    end_header
0.438794 -0.0761397 2.19401
0.4388 -0.0762004 2.19399
0.438802 -0.076246 2.19397
0.438801 -0.0762452 2.19396
0.438803 -0.0761655 2.19402
0.438781 -0.0761595 2.194
0.438805 -0.076156 2.19403
0.438798 -0.0761815 2.194
0.438809 -0.0761975 2.19401
0.438803 -0.0762299 2.19398
0.438826 -0.0761683 2.19404
0.438808 -0.0761735 2.19403
0.438805 -0.0762113 2.19399
0.438801 -0.0761764 2.19402
0.438791 -0.0761633 2.19401
0.438823 -0.0761542 2.19405
0.438805 -0.0761857 2.19401
0.438792 -0.0761517 2.19402
0.438809 -0.0761462 2.19403
0.438811 -0.0762277 2.19399
0.438835 -0.0761737 2.19405
0.438785 -0.0761686 2.194
0.43882 -0.0762126 2.194
0.438812 -0.07624 2.19397
0.438811 -0.076183 2.19402
0.438816 -0.0761572 2.19404
0.438832 -0.0761531 2.19405
0.438832 -0.0761625 2.19406
0.438802 -0.0761487 2.19402
0.438812 -0.0762037 2.194
0.438816 -0.0761695 2.19403
0.438821 -0.076203 2.19401
0.438834 -0.0761763 2.19404
0.438829 -0.0761855 2.19403
0.438841 -0.0761709 2.19406
0.438819 -0.0761928 2.19402
0.438819 -0.0761793 2.19403
0.438825 -0.0761759 2.19403
0.438815 -0.0762179 2.19399
0.438826 -0.076218 2.194
0.438829 -0.0762002 2.19401
0.438827 -0.0762086 2.19401
0.438829 -0.0761912 2.19402
0.438821 -0.0762263 2.19399
0.438804 -0.0761919 2.194
0.438804 -0.0762554 2.19396
0.438803 -0.076221 2.19398
0.4388 -0.0762054 2.19398
0.438798 -0.0762218 2.19397
0.438784 -0.0761681 2.19399
0.438801 -0.0761715 2.19401
0.438804 -0.0761858 2.19399
0.438806 -0.0762313 2.19396
0.438803 -0.0761711 2.19399
-2.36883 -1.50561 2.17855
23.635 9.80138 1.44572
0.439112 -0.0760439 2.19402
0.438857 -0.0762049 2.19399
10.0462 4.7998 2.00242
0.320488 -0.130347 2.19226
0.460643 -0.0656117 2.19458
0.438849 -0.0761927 2.19401
3.56113 1.40952 2.18267
0.438991 -0.07605 2.19403
0.438831 -0.0762402 2.19397
0.438868 -0.076172 2.19401
0.436991 -0.0769909 2.19405
0.43885 -0.0762137 2.194
