ply
    format ascii 1.0           
    element vertex 69
    property double x           
    property double y           
    property double z           
    end_header
0.0127606 -1.49001 6.51146
-0.119701 -1.66764 6.40952
-0.295009 -1.67973 6.27645
-0.334818 -0.949323 6.44589
-0.429574 -1.06303 6.27833
-0.131357 -1.49005 6.41595
-0.411078 -0.650173 6.46876
-0.352447 -1.45204 6.14085
-0.550317 -1.8446 6.17801
-0.608112 -1.64605 6.12866
-0.275665 -1.36482 6.24807
-0.357786 -1.21604 6.34737
-0.460932 -0.246404 6.51542
-0.739199 -1.6274 6.04595
-0.613414 -0.860912 6.31814
-0.0669737 -1.37561 6.47821
-0.343717 -1.83843 6.31423
-0.424535 -0.80723 6.42613
-0.699799 -1.78972 6.083
-0.460963 -1.73431 6.25498
-0.464786 -1.55067 6.20811
-0.423234 -1.30196 6.22608
-0.5287 -0.581009 6.40338
-0.607614 -0.335686 6.53518
-0.706989 -1.92357 6.18879
-0.435715 -0.487632 6.51991
-0.139971 -1.83093 6.5645
-0.49769 -0.952177 6.39272
-0.613617 -1.02312 6.28627
-0.695518 -1.36103 6.22927
-0.565014 -1.17973 6.27042
-0.760692 -1.55254 6.17933
-0.619151 -1.49779 6.22825
-0.518021 -1.40665 6.15504
-0.574022 -0.739992 6.40298
-0.845315 -1.71715 6.10721
-0.71622 -1.25173 6.33866
-0.735856 -1.09879 6.36804
-0.736834 -0.78614 6.42737
-0.685588 -0.630432 6.46818
-0.835988 -1.82449 6.16713
-0.644298 -0.460318 6.68146
-0.884923 -1.64304 6.21772
-0.821871 -1.35699 6.38846
-0.732908 -0.948904 6.39446
-0.277954 -1.51993 6.29925
-0.26469 -1.7578 6.41964
-0.337768 -0.948087 6.45753
-0.598686 -0.341819 6.53521
-0.266416 -1.21823 6.496
-0.283811 -1.36409 6.25693
-0.351646 -1.21277 6.34167
-0.406938 -0.645616 6.47828
-0.465954 -0.227872 6.52158
-0.369342 -1.09112 6.44463
-0.352682 -0.589197 6.60918
-0.346663 -0.837953 6.5867
-0.0553539 -1.61321 6.57916
-0.254828 -1.37211 6.4001
-0.219335 -1.80517 6.88719
-0.302939 -1.30616 6.63059
-0.0495955 -1.34232 6.62649
-0.360085 -1.12021 6.60986
-0.425484 -0.611139 6.7466
-0.516465 -0.104002 6.66627
-0.256821 -1.68504 6.82413
-0.49032 -0.433381 6.72706
-0.181862 -1.7361 6.69922
-0.515472 -1.06352 6.69098
