ply
    format ascii 1.0           
    element vertex 70
    property double x           
    property double y           
    property double z           
    end_header
-0.45233 -0.713978 2.87285
-0.251179 -0.749277 2.88733
-0.142594 -0.438501 2.72908
-0.399493 -0.439654 2.67219
0.0759606 -0.591616 2.88178
-0.229462 -0.304188 2.61159
-0.50543 -0.561606 2.82792
-0.425079 -0.827347 3.04748
-0.607644 -0.707859 2.99504
0.121915 0.0130889 2.70585
-0.315831 -0.54217 2.80511
-0.402775 -0.284432 2.55897
-0.0461974 0.0836276 2.66604
-0.219206 -0.00485707 2.62582
-0.285989 0.519038 2.65466
-0.544288 -0.261153 2.67054
0.0518933 0.27811 2.66888
0.0126124 0.614712 2.68614
-0.338447 0.83884 2.68917
-0.547017 -0.370963 2.82961
-0.187647 1.08482 2.67564
-0.332692 1.18941 2.82149
-0.397958 0.408311 2.75104
-0.376976 0.660982 2.71733
0.0162984 1.14769 2.72565
-0.635829 -0.519784 2.94557
-0.405874 0.229429 2.71095
-0.670362 -0.630143 3.16203
-0.568783 0.0379268 2.92468
-0.458286 0.332585 2.91441
-0.405611 0.0249378 2.75185
-0.416111 0.602928 2.89586
-0.128687 0.78278 2.62912
-0.643504 -0.433774 3.10098
-0.557117 -0.265317 3.0089
-0.422481 0.791275 2.85235
-0.211273 0.2392 2.63577
-0.523788 -0.137424 2.8243
-0.163306 0.620562 2.59454
-0.149834 1.28111 2.76855
-0.262108 1.36505 3.00112
-0.314563 0.991336 2.78568
-0.358626 -0.118199 2.62412
0.0146085 1.13573 2.72022
-0.0285492 0.954087 2.72003
-0.23448 -0.314749 2.61257
0.0333814 -0.168172 2.71762
-0.211786 0.0213098 2.63976
-0.140814 -0.171684 2.68124
0.00741499 0.600808 2.68068
-0.121662 -0.587488 2.86939
0.309479 -0.455878 3.02655
-0.120235 0.40377 2.66547
-0.0398191 0.083429 2.65323
0.144427 0.469525 2.74545
0.25665 -0.636007 3.02068
0.0892845 -0.742109 3.03897
0.178467 -0.0996314 2.8565
0.166971 -0.404011 2.91893
0.0799486 0.764369 2.77811
-0.0668786 -0.296161 2.80552
0.0546579 0.292746 2.67961
0.233168 -0.271539 3.07206
0.192459 0.309054 2.85298
0.0995123 1.41064 2.98402
-0.0788111 1.40822 2.89526
0.138574 0.727598 2.96887
0.0632942 1.25754 2.85471
0.115755 0.992034 2.86354
0.0474886 -0.258972 2.96558
