ply
    format ascii 1.0           
    element vertex 66
    property double x           
    property double y           
    property double z           
    end_header
0.0386333 -0.113975 1.67919
-0.0188669 -0.194456 1.68519
0.0166989 -0.368143 1.62301
0.00624323 -0.0962892 1.6486
0.0362727 -0.284152 1.57098
0.0660162 -0.467606 1.70502
0.0129846 -0.380889 1.56239
-0.0131685 -0.213971 1.63198
0.00197398 -0.319723 1.66503
0.089032 -0.516397 1.70027
0.046171 -0.442298 1.66193
0.0369873 -0.389292 1.67194
0.027213 -0.347072 1.70262
0.0710498 -0.415128 1.71121
0.0374457 -0.417815 1.61077
0.139153 -0.466681 1.56633
0.000144237 -0.278126 1.66926
0.164805 -0.441306 1.51704
0.0293877 -0.144404 1.61011
0.0825889 -0.379875 1.54138
0.024743 -0.310599 1.62107
0.0862152 -0.475583 1.65615
0.114341 -0.421606 1.55522
0.0390399 -0.337542 1.57993
0.143776 -0.39651 1.51706
0.1978 -0.48425 1.56715
0.0189268 -0.186467 1.59956
0.197551 -0.392356 1.50969
0.1763 -0.352596 1.51648
0.0803341 -0.449605 1.5881
0.00373193 -0.174751 1.6467
0.0344119 -0.286355 1.71859
0.115958 -0.448574 1.72845
0.116179 -0.402798 1.74012
0.191095 -0.520696 1.74716
0.0868097 -0.360553 1.72176
0.164385 -0.475147 1.73359
0.147167 -0.522547 1.71367
0.176184 -0.566738 1.73123
-0.0285597 -0.140263 1.7516
0.129685 -0.481607 1.66152
0.0928339 -0.493694 1.62563
0.0560243 -0.315706 1.67176
0.0538593 -0.373567 1.62899
0.105927 -0.546906 1.63463
-0.0856152 -0.130142 1.7259
0.0110489 -0.353517 1.61561
0.0867629 -0.44747 1.65134
-0.0577175 -0.25703 1.6482
0.0442723 -0.478464 1.62559
-0.065236 -0.447864 1.63292
-0.0149976 -0.416557 1.63267
-0.0150611 -0.474267 1.63808
-0.0493161 -0.315961 1.67431
-0.0139698 -0.522003 1.67357
-0.0577642 -0.410568 1.66798
-0.0921981 -0.202696 1.73074
0.0564858 -0.523831 1.66114
-0.0467875 -0.215594 1.68446
-0.0776915 -0.570529 1.75526
-0.0305791 -0.362654 1.6511
-0.0942262 -0.520202 1.7496
-0.0921345 -0.249667 1.69042
-0.0504393 -0.518078 1.71348
-0.078774 -0.298374 1.70407
-0.108618 -0.492055 1.79603
