ply
    format ascii 1.0           
    element vertex 79
    property double x           
    property double y           
    property double z           
    end_header
-0.113518 -0.276668 1.21185
-0.0270954 -0.384539 1.28027
-0.126643 -0.0650515 1.30003
-0.0487682 -0.395526 1.23243
-0.0717982 -0.208988 1.27823
-0.119109 -0.379484 1.17806
-0.117659 -0.163565 1.23265
-0.018733 -0.298922 1.25715
-0.156046 -0.34206 1.16237
-0.0469846 -0.288285 1.22687
-0.0870498 -0.167151 1.26655
-0.0744246 -0.31945 1.22079
-0.180953 -0.127722 1.22202
-0.0141448 -0.339801 1.27125
-0.0903982 -0.425988 1.20138
-0.0637742 -0.436224 1.23377
-0.00612762 -0.429219 1.34223
-0.0873198 -0.381299 1.20821
-0.204912 -0.00556679 1.26955
-0.103316 -0.207336 1.24818
-0.0824971 -0.475232 1.24135
-0.128589 -0.444188 1.18698
-0.0688248 -0.356955 1.23855
-0.139763 -0.327637 1.19942
-0.0383699 -0.466442 1.31437
-0.15178 -0.409892 1.17053
-0.140515 -0.199888 1.22436
-0.0346042 -0.419618 1.30958
-0.18108 -0.376836 1.17398
-0.161701 -0.280775 1.21372
-0.186562 -0.207373 1.23111
-0.171373 -0.490104 1.26353
-0.100576 -0.466379 1.2071
-0.140763 -0.47664 1.21821
-0.173754 -0.443575 1.20616
-0.135029 -0.0954629 1.23597
-0.254398 -0.344336 1.22944
-0.216254 -0.326039 1.22196
-0.25013 -0.406293 1.3511
-0.214932 -0.280462 1.24866
-0.250241 -0.309021 1.25264
-0.157456 -0.0556397 1.2442
-0.164803 -0.169265 1.24942
-0.216918 -0.240082 1.27379
-0.132591 -0.242629 1.23591
-0.21172 -0.0519235 1.29732
-0.220626 -0.391778 1.26831
-0.179628 -0.253011 1.24285
-0.196032 -0.463614 1.28385
-0.123484 -0.143145 1.27375
-0.0526263 -0.395935 1.2357
-0.0927983 -0.251511 1.26668
-0.0126439 -0.341378 1.27151
-0.143683 -0.328165 1.20239
-0.0676996 -0.356229 1.23941
-0.0254832 -0.386731 1.28229
-0.0525267 -0.272104 1.26653
-0.0707309 -0.211607 1.28004
-0.0846055 -0.168745 1.26636
-0.0163894 -0.301754 1.25794
-0.0872345 -0.382455 1.20895
-0.00237756 -0.43127 1.34425
-0.0643748 -0.436439 1.23579
-0.208815 0.00109861 1.27284
-0.130487 -0.0560018 1.30235
-0.0794968 -0.474548 1.24139
-0.0396172 -0.467433 1.31938
-0.116234 -0.0953595 1.27883
-0.00129781 -0.392128 1.33277
-0.167517 -0.0342113 1.28216
-0.0677307 -0.250308 1.31471
-0.0323246 -0.420096 1.31344
-0.0107078 -0.340809 1.41331
-0.10172 -0.137946 1.31475
-0.00593546 -0.361679 1.37101
-0.0400897 -0.315459 1.38786
-0.0787934 -0.476724 1.28448
-0.0723286 -0.272177 1.35845
-0.0117318 -0.384403 1.41731
