ply
    format ascii 1.0           
    element vertex 72
    property double x           
    property double y           
    property double z           
    end_header
0.109342 -0.605724 2.17212
0.0331892 -0.607134 2.1976
-0.123868 -0.692761 2.27052
0.0373528 -0.541456 2.16673
-0.0634802 -0.733936 2.29557
0.0172592 -0.743366 2.31151
-0.0282152 -0.563564 2.19654
-0.072715 -0.404703 2.34116
-0.0129406 -0.797819 2.33902
0.142679 -0.721394 2.25723
-0.0817322 -0.64394 2.29095
-0.00745686 -0.352731 2.31753
-0.1609 -0.654269 2.3231
-0.0576611 -0.277984 2.3866
-0.0248717 -0.445694 2.29028
0.130202 -0.662293 2.20437
0.168735 -0.566274 2.18959
0.18373 -0.651221 2.23921
-0.0115535 -0.492252 2.17533
0.0573213 -0.480491 2.17743
-0.0204535 -0.295103 2.3454
0.103919 -0.531566 2.18982
-0.0864614 -0.0840716 2.38341
0.0408315 -0.302594 2.34536
0.0772472 -0.389811 2.34462
-0.033367 -0.20812 2.37362
-0.0519823 -0.144842 2.36545
0.0190486 -0.252231 2.37951
0.0569996 -0.445965 2.30193
0.0889516 -0.339768 2.39556
0.126072 -0.404265 2.39506
0.132077 -0.3544 2.43909
0.185561 -0.515891 2.41832
0.0244374 -0.464948 2.23411
0.22557 -0.677805 2.31847
0.128685 -0.484497 2.39049
0.209649 -0.588791 2.25262
0.0940479 -0.498037 2.25709
0.0614389 -0.254409 2.43857
0.185801 -0.610052 2.48844
0.149939 -0.476798 2.46386
0.208452 -0.757619 2.42504
0.153706 -0.575113 2.39993
0.125566 -0.41534 2.46184
0.197202 -0.714924 2.26938
0.198765 -0.614485 2.31835
0.155459 -0.784675 2.36544
0.166291 -0.627919 2.17808
0.212547 -0.698158 2.3836
-0.114772 -0.687491 2.25479
-0.0542758 -0.728574 2.27772
-0.00206526 -0.791842 2.32083
0.0747507 -0.770502 2.33271
0.158628 -0.745274 2.31619
0.0250059 -0.73729 2.2909
0.0847985 -0.6382 2.2227
-0.0225335 -0.560241 2.19485
-0.00910817 -0.492631 2.17461
-0.0718271 -0.636699 2.27741
0.109425 -0.729782 2.3039
0.0360671 -0.605704 2.19063
-0.0135104 -0.618983 2.23995
0.0920506 -0.695947 2.25537
0.147676 -0.716702 2.2434
0.00371694 -0.665757 2.29514
-0.0631436 -0.771448 2.34278
-0.128841 -0.716635 2.31401
0.130678 -0.658069 2.19327
0.0569028 -0.48109 2.17495
-0.0240313 -0.208206 2.39764
-0.0759498 -0.0895432 2.4152
-0.151925 -0.650164 2.30581
