ply
    format ascii 1.0           
    element vertex 78
    property double x           
    property double y           
    property double z           
    end_header
-0.975023 -0.946782 4.9062
-1.38422 -0.47037 5.12472
-1.11849 -0.192777 4.81557
-1.1241 -0.103446 4.5374
-0.993962 -0.0905621 4.26751
-0.936341 -0.699554 4.77374
-1.04873 -0.879678 5.17033
-1.18022 -0.658277 4.9808
-0.856258 -0.509434 4.48952
-1.24298 0.0657981 4.74427
-0.442741 -0.944922 4.51426
-1.2916 -0.635751 5.31505
-0.913596 -0.309974 4.23712
-1.14651 0.1593 4.49723
-1.21576 0.349665 4.67753
-1.3179 -0.351854 5.38228
-0.763055 -0.572758 4.27826
-0.845794 0.600691 5.2949
-0.548502 1.57762 5.41161
-0.928999 -0.263934 4.46426
-1.1768 -0.29337 5.07335
-0.719714 -0.867397 4.71031
-0.701567 0.806623 5.08073
-0.948256 -0.421381 4.86452
-1.06531 0.244766 4.91471
-0.549589 1.75791 5.59438
-0.573525 1.06075 5.43045
-0.571427 -0.593423 4.20153
-0.768476 0.039841 4.14464
-0.894186 0.47649 5.01511
-0.906789 0.178713 4.36122
-0.563152 0.678931 5.60525
-0.995789 -0.00373496 5.04056
-0.759995 0.203266 5.45029
-0.625718 1.0086 5.20347
-1.07253 -0.182631 5.33665
-0.468095 0.975606 5.01332
-0.945462 0.00121914 5.44551
-0.438107 0.632513 4.88092
-0.178012 0.52629 4.86367
-0.841628 -0.205521 4.0953
-0.224383 0.791752 4.9896
-0.507155 -0.0993238 4.16021
-0.000581587 0.693878 4.95661
-0.341887 -0.486247 4.21276
-0.44408 -0.943648 4.49414
-0.568568 -0.598791 4.18336
-0.536192 1.58122 5.41999
-0.973598 -0.933399 4.88945
-1.02345 0.387549 4.4988
-0.725358 -0.866452 4.68642
-0.546078 -0.746106 4.38716
-0.122335 -0.883027 4.48637
-0.503667 1.31701 5.37546
-0.651341 -0.343678 4.17445
-0.197072 -0.615155 4.42469
0.00375436 0.451714 5.00737
-0.231032 1.67669 5.63229
-0.235795 0.219935 4.79992
-0.366189 -0.23617 4.33314
0.0839793 -0.0776918 4.89246
-0.118379 1.10093 5.21691
-0.0371438 0.0724026 4.70068
0.106333 -0.345231 4.79622
-0.644792 0.447151 4.81313
-0.278045 1.91752 5.52862
0.301035 -0.232765 5.01233
-0.208632 1.38428 5.53432
-0.208964 -0.14243 4.7106
-0.181773 -0.407378 4.62897
-0.365964 1.96874 5.30622
-0.711912 0.262189 4.57496
0.215515 -0.0434708 5.15963
-0.387265 1.14942 5.22929
-0.0934865 -0.67082 4.67374
0.0296792 0.206047 4.9059
-0.478294 -0.0177491 4.49724
-1.39714 -0.464788 5.1008
