ply
    format ascii 1.0           
    element vertex 73
    property double x           
    property double y           
    property double z           
    end_header
-0.0853298 -0.358568 1.11133
-0.225057 -0.492776 1.21888
-0.0305515 -0.217561 1.18343
-0.0692665 -0.305329 1.12795
-0.214005 -0.427179 1.0311
-0.10045 -0.323401 1.15522
-0.234609 -0.461132 1.03293
-0.210319 -0.403215 1.071
-0.211547 -0.36713 1.09554
-0.222195 -0.369312 1.13604
-0.23853 -0.441232 1.06598
-0.232631 -0.398687 1.10733
-0.0407973 -0.285456 1.14614
-0.215182 -0.524314 1.18624
-0.192651 -0.572796 1.14913
-0.204058 -0.536575 1.14035
-0.160033 -0.591793 1.07899
-0.0379213 -0.258957 1.17543
-0.23583 -0.476765 1.05726
-0.235788 -0.439896 1.11362
-0.00875183 -0.192514 1.20696
-0.228831 -0.412151 1.14947
-0.198791 -0.472594 1.1953
-0.216769 -0.523577 1.05752
-0.181212 -0.569223 1.11757
-0.212091 -0.510249 1.09294
-0.049194 -0.29573 1.19228
-0.190933 -0.478759 1.24838
-0.189669 -0.562876 1.20397
-0.19964 -0.522014 1.23891
-0.175604 -0.557701 1.06322
-0.188532 -0.497026 1.15166
-0.109621 -0.352063 1.19604
-0.215453 -0.470483 1.09151
-0.212719 -0.456229 1.15337
-0.186554 -0.54229 1.08977
-0.0790562 -0.296923 1.16483
-0.16029 -0.461903 1.22369
-0.124555 -0.442127 1.22966
-0.140989 -0.366751 1.16221
-0.196486 -0.536905 1.03825
-0.204308 -0.491905 1.03269
-0.0374091 -0.282053 1.14644
-0.180601 -0.4577 1.01627
-0.0398969 -0.343476 1.11379
-0.113208 -0.596338 1.05307
-0.0718577 -0.430008 1.0969
-0.0512511 -0.384669 1.09548
-0.0113248 -0.366859 1.09609
-0.125989 -0.376815 1.11799
-0.0540401 -0.463078 1.07487
-0.161938 -0.399252 1.08868
0.00105348 -0.301324 1.13161
-0.0236028 -0.444251 1.09461
-0.109358 -0.446184 1.10932
-0.210841 -0.366111 1.09222
0.0117049 -0.523167 1.09613
-0.0338708 -0.532407 1.08408
0.0300362 -0.262582 1.19128
-0.0858621 -0.484759 1.08226
-0.139799 -0.453116 1.07159
-0.0913007 -0.412447 1.132
-0.147242 -0.487231 1.03556
-0.0103411 -0.406684 1.10894
0.013011 -0.35581 1.13137
-0.0983019 -0.523614 1.06723
-0.15966 -0.525599 1.01929
-0.172386 -0.369245 1.12597
-0.119764 -0.559291 1.05454
-0.00233813 -0.151079 1.14816
-0.0298654 -0.207665 1.17333
-0.215263 -0.497246 1.25084
-0.218382 -0.366961 1.13702
