ply
    format ascii 1.0           
    element vertex 73
    property double x           
    property double y           
    property double z           
    end_header
-0.293066 -0.0431984 1.84692
-0.0968064 -0.22168 1.83022
0.00144875 0.823154 1.9619
0.123285 -0.156187 1.81338
-0.175796 -0.318149 1.90455
-0.150859 0.11619 1.8386
0.0490083 0.473689 1.93939
-0.0727734 -0.323043 1.88169
-0.203781 -0.102872 1.87451
0.00375915 -0.262075 1.85082
-0.063184 0.492033 1.8491
-0.188759 0.00412556 1.85556
0.0365033 -0.115876 1.78859
-0.14066 0.27995 1.86295
-0.27162 0.0646866 1.83078
-0.283151 -0.299185 1.96467
0.0193665 0.356592 1.94616
-0.193635 0.391135 1.86374
-0.312909 -0.399088 2.01226
-0.128075 0.603169 1.86098
-0.387586 0.00946278 1.88694
0.189933 -0.0644665 1.89383
0.0731117 0.0306221 1.83446
-0.0812884 0.394823 1.90981
-0.352553 -0.20513 2.02517
0.168134 0.0328146 1.89918
0.0943579 -0.222367 1.87161
0.122219 -0.0663462 1.83073
-0.202688 -0.386018 2.00088
-0.201145 -0.211241 1.89184
-0.0318077 0.0638243 1.88559
-0.100066 -0.0379477 1.8877
-0.224129 0.590552 1.93344
-0.117533 0.799385 1.94644
0.0285622 0.648145 1.99501
-0.220881 0.182783 1.87987
0.0297063 0.212146 1.96454
-0.353155 0.116694 1.89336
-0.00429813 -0.156212 1.86587
-0.0877478 0.167465 1.91595
-0.159127 0.491746 1.91062
-0.100476 -0.145619 1.8953
-0.0316512 0.566729 1.93497
-0.067449 0.683652 1.93331
-0.028651 0.264451 1.88412
-0.26548 -0.138592 1.9695
0.00862455 -0.0542808 1.86893
-0.184586 0.696241 1.94816
-0.254551 0.442443 1.9517
-0.34488 -0.0708731 1.94043
-0.35179 -0.311912 2.07515
-0.403278 -0.255276 2.16898
-0.362878 -0.155935 2.12522
-0.39966 -0.151027 2.22733
-0.23179 0.647814 2.04419
-0.226287 0.398426 2.07295
-0.27172 0.284863 2.04596
-0.180261 0.764819 2.04469
-0.371784 0.124499 1.99676
-0.358654 -0.0925963 2.04754
-0.25451 0.289217 1.95118
-0.395434 0.0149687 2.003
-0.259329 0.194609 2.16997
-0.311359 0.09548 2.1838
-0.320797 -0.0700233 2.27175
-0.313636 -0.336803 2.19476
-0.213618 0.529376 2.09931
-0.200971 -0.377715 2.2333
0.00417253 -0.254432 1.8428
0.0152382 0.834744 1.96314
-0.151777 0.112053 1.8327
-0.0921682 -0.336397 1.98039
-0.218105 0.183367 1.88026
