ply
    format ascii 1.0           
    element vertex 67
    property double x           
    property double y           
    property double z           
    end_header
-0.276905 -0.276874 1.19285
-0.293319 -0.311223 1.18216
-0.184575 -0.112417 1.21212
-0.262097 -0.42164 1.17096
-0.279615 -0.434791 1.21081
-0.278596 -0.396095 1.20563
-0.216289 -0.183712 1.19663
-0.237222 -0.388681 1.14876
-0.271764 -0.456967 1.18131
-0.158838 -0.351182 1.10736
-0.205712 -0.387725 1.11937
-0.202302 -0.222802 1.18154
-0.273471 -0.360533 1.22513
-0.167007 -0.0574843 1.26033
-0.256709 -0.288924 1.15871
-0.167456 -0.149658 1.19209
-0.23099 -0.424793 1.14147
-0.275821 -0.344727 1.1898
-0.235803 -0.350559 1.15286
-0.2659 -0.326875 1.15599
-0.251323 -0.370583 1.18674
-0.197975 -0.425816 1.12676
-0.236525 -0.454475 1.16889
-0.172769 -0.403252 1.11384
-0.138498 -0.307539 1.13405
-0.162373 -0.233612 1.18027
-0.122877 -0.0542001 1.25662
-0.231337 -0.255466 1.18357
-0.174892 -0.189885 1.19668
-0.212604 -0.27574 1.15729
-0.129558 -0.368483 1.10436
-0.197947 -0.33197 1.15482
-0.170187 -0.300996 1.16013
-0.228739 -0.313392 1.15418
-0.124539 -0.170395 1.20984
-0.214898 -0.124229 1.24447
-0.138037 -0.397692 1.12276
-0.197336 -0.156116 1.2198
-0.200643 -0.368268 1.14867
-0.124936 -0.341489 1.11972
-0.184866 -0.269093 1.18297
-0.138562 -0.211679 1.20424
-0.120097 -0.119054 1.24844
-0.155955 -0.0951579 1.24084
-0.195949 -0.0856221 1.24965
-0.161712 -0.337758 1.14213
-0.170055 -0.371639 1.13232
-0.236623 -0.227359 1.22032
-0.230819 -0.17553 1.23536
-0.278436 -0.394692 1.27978
-0.278483 -0.434194 1.21182
-0.275004 -0.360335 1.22458
-0.286915 -0.42288 1.25136
-0.221274 -0.202624 1.26358
-0.272188 -0.388062 1.2441
-0.208447 -0.118611 1.28557
-0.23609 -0.236696 1.25157
-0.275734 -0.283289 1.22932
-0.277058 -0.344367 1.18987
-0.183419 -0.0813841 1.29414
-0.286569 -0.319529 1.22341
-0.224175 -0.278713 1.28301
-0.20197 -0.163581 1.28735
-0.271998 -0.458399 1.17963
-0.258556 -0.452122 1.24466
-0.236996 -0.350365 1.1517
-0.171551 -0.152857 1.19248
