ply
    format ascii 1.0           
    element vertex 71
    property double x           
    property double y           
    property double z           
    end_header
0.323963 1.48421 2.93096
0.457931 0.21171 2.46081
0.597715 -0.392411 2.49443
0.793404 -0.184866 2.63412
0.423116 -0.590931 2.4591
0.460297 0.906348 2.65144
0.299435 -0.0838686 2.27048
0.584732 -0.587094 2.57076
0.324789 0.120274 2.29018
0.752335 0.0705599 2.74751
0.394997 0.512843 2.5367
0.384838 -0.197878 2.4135
0.509353 0.479117 2.69993
0.205217 -0.573913 2.39965
0.340971 1.10078 2.59682
0.116965 -0.00205084 2.1935
0.304274 0.713296 2.48477
0.276503 -0.742104 2.53429
0.121915 -0.770688 2.41112
0.387699 -0.394186 2.42749
0.12505 0.194687 2.26823
0.128561 1.05155 2.5403
0.298968 0.332565 2.43449
0.11359 -0.165005 2.30562
0.423016 -0.641857 2.67478
0.186387 -0.29038 2.43651
0.0968324 0.780444 2.50923
0.134158 1.24537 2.63733
0.76943 -0.405892 2.79196
0.643336 -0.0873652 2.69938
0.126166 0.49625 2.48199
0.0187799 -0.423012 2.38258
-0.0281545 -0.631816 2.43135
-0.230809 -0.548952 2.486
-0.0534488 -0.0181368 2.3238
-0.139983 -0.708107 2.63686
-0.0475233 1.13393 2.67961
-0.045171 -0.226142 2.40804
-0.14327 -0.360056 2.50456
-0.0132819 0.67425 2.63049
-0.0418849 0.190832 2.37396
-0.330067 -0.374268 2.57605
-0.0750368 0.901373 2.74107
-0.0161399 0.468051 2.56173
-0.0113593 1.35819 2.78698
0.261932 0.884874 2.58951
-0.312467 -0.232134 2.73501
0.108338 1.56054 2.85466
0.197284 1.432 2.74814
0.752088 0.0777083 2.75719
0.295386 0.333942 2.43167
0.653999 -0.273193 2.6593
0.328158 1.4798 2.91536
0.545705 0.121418 2.68997
0.507785 0.486167 2.71675
0.453902 0.218386 2.46686
0.486024 -0.0675108 2.57409
0.853909 -0.0965199 2.94567
0.501222 -0.26111 2.56357
0.886478 -0.250932 2.76139
0.707371 -0.458249 2.63869
0.41376 0.00560025 2.42161
0.391263 0.70995 2.6862
0.485127 0.856452 2.90976
0.362779 1.1591 2.9612
0.782187 -0.396658 2.78952
0.784238 0.0690613 2.95308
0.427738 0.297075 2.6374
0.313303 1.22756 2.77499
0.467996 0.632715 2.84883
0.835375 -0.0958879 2.80606
