ply
    format ascii 1.0           
    element vertex 68
    property double x           
    property double y           
    property double z           
    end_header
-0.217544 0.170002 2.13262
-0.220981 -0.700995 2.1824
-0.303765 0.21777 2.24785
-0.290177 0.402348 2.24192
-0.379601 -0.686476 2.43603
0.144014 -0.410999 1.99321
-0.394533 -0.332458 2.11365
-0.136621 0.0418223 2.12012
-0.24189 -0.83368 2.23232
-0.3258 -0.602769 2.26246
0.166305 -0.227171 2.06496
-0.276317 0.0369657 2.23354
-0.169929 0.441493 2.15696
-0.369502 -0.194463 2.13855
-0.00222853 -0.565096 2.02883
-0.0749307 0.31733 2.13219
-0.261659 -0.239984 2.05146
-0.312003 -0.739262 2.31058
-0.407087 -0.335491 2.26077
-0.134241 -0.574344 2.10061
-0.34988 -0.470525 2.30167
-0.327844 -0.430071 2.17677
-0.219253 -0.0891427 2.12788
-0.0854194 -0.701909 2.10659
-0.188279 0.673999 2.2862
0.101807 -0.343262 2.09738
-0.152876 -0.443095 2.09168
-0.270529 -0.379141 2.06125
-0.223312 -0.502912 2.20698
-0.0454564 0.721084 2.30325
-0.110544 -0.801484 2.21654
0.0413429 -0.688363 2.08
0.255221 -0.447783 2.01837
0.00343179 0.0386524 2.15014
-0.150446 -0.305112 2.07133
-0.0210401 -0.475792 2.11165
-0.0369713 -0.343651 2.1142
-0.121451 -0.16121 2.0678
0.0333609 -0.209313 2.131
0.064657 0.303947 2.24053
-0.0811838 0.185469 2.18443
0.0858901 -0.0228081 2.25645
0.126606 -0.598234 2.04918
0.240753 -0.339662 2.04662
0.229484 -0.54109 2.08585
0.279985 -0.219947 2.14478
-0.0524543 -0.0967335 2.16914
0.0465109 0.149776 2.23518
0.0134782 0.508975 2.32986
-0.194749 0.293981 2.19885
-0.108518 0.54142 2.25692
0.324209 -0.332253 2.12271
-0.321376 -0.60425 2.26488
-0.0628637 0.612378 2.38335
-0.0469387 0.403585 2.24474
0.0976039 -0.34587 2.09493
-0.255922 0.539886 2.27278
-0.395955 -0.331628 2.1143
-0.284409 0.0223544 2.23096
-0.304732 0.212745 2.24553
0.0980717 -0.472952 2.08004
-0.226165 -0.508505 2.20521
-0.0868562 -0.701634 2.10885
-0.305036 -0.74306 2.32023
-0.274925 -0.118471 2.24809
-0.108407 -0.804129 2.21735
-0.385421 -0.68644 2.43083
-0.390417 -0.56555 2.52632
