ply
    format ascii 1.0           
    element vertex 71
    property double x           
    property double y           
    property double z           
    end_header
0.590672 0.00758307 1.71217
0.428737 0.0505005 1.68573
0.450568 -0.0685125 1.72599
0.392858 -0.235337 1.81895
0.302662 0.0587338 1.63257
0.378514 0.158584 1.64502
0.237681 -0.0780361 1.67257
0.527622 -0.286142 1.8474
0.684758 -0.0948427 1.83298
0.229985 -0.282441 1.7313
0.56238 -0.143369 1.72995
0.0013529 -0.275947 1.72737
0.402367 0.262244 1.70683
0.496816 0.257844 1.80071
0.196287 -0.144527 1.75922
0.304746 0.336273 1.69651
0.419716 0.557044 1.84662
0.630518 -0.317078 1.97583
0.327027 0.646823 1.80882
0.490526 0.604257 1.94184
0.433276 0.68453 1.86946
0.304219 0.515193 1.77762
0.613394 -0.191478 1.96352
0.259195 0.804841 1.91124
0.313174 0.904223 1.95516
0.446814 0.360859 1.76482
0.398476 0.457282 1.795
0.471975 0.488109 1.95094
0.530829 0.374257 1.97356
0.517985 0.271109 1.92308
0.541911 -0.157251 1.85515
0.325614 1.00491 2.10487
0.433371 0.160471 1.76458
0.632836 -0.199501 2.13899
0.513279 0.156853 1.87105
0.440382 0.796901 1.98738
0.638686 -0.10837 2.05267
0.459811 0.38859 1.88168
0.621819 0.0259601 1.8394
0.0307219 -0.00345593 1.72011
0.337086 -0.00849372 1.75449
0.175201 0.289737 1.74428
0.103668 0.0810555 1.68695
0.0250079 -0.404188 1.72042
0.160321 -0.474517 1.73589
0.227617 0.643524 1.86765
0.161064 0.164288 1.75413
-0.105421 -0.206594 1.80625
0.111666 -0.252878 1.77896
-0.0975375 -0.341997 1.7737
0.0204262 -0.200003 1.84928
0.205359 0.0400832 1.70363
0.277039 0.208769 1.69986
-0.183142 -0.259836 1.86264
0.231575 0.397543 1.76341
0.0832444 -0.0835463 1.81729
0.240357 0.980777 2.02366
0.217342 0.527159 1.85168
0.367353 0.880052 2.06038
0.506395 0.0554415 1.79111
0.515127 -0.385169 1.95403
0.489473 0.605951 1.94609
0.520486 0.382416 1.98893
0.332141 0.999483 2.09415
0.435293 0.158432 1.7627
0.46558 0.488298 1.95649
0.613553 -0.191489 1.96192
0.62454 0.0272647 1.83973
0.518432 0.159624 1.86857
0.51429 0.273885 1.9295
0.458418 0.384047 1.88075
