ply
    format ascii 1.0           
    element vertex 71
    property double x           
    property double y           
    property double z           
    end_header
-0.812497 -0.0577922 8.38579
-0.877514 -0.827524 8.03807
-1.06112 -0.95016 8.19048
-0.880385 -0.940824 7.99555
-0.864203 -0.217213 8.38103
-0.961868 -1.04167 8.06657
-0.755306 -0.494829 8.21693
-1.02408 -0.731521 8.21867
-0.727452 -0.297866 8.27775
-0.833755 -1.15105 8.13259
-0.758781 -0.973353 7.9993
-0.933578 -0.658292 8.1895
-0.950332 -0.592776 8.27417
-0.941305 -0.511754 8.35953
-0.595629 -0.829906 8.30814
-0.789236 -0.397179 8.2593
-0.879064 -0.435627 8.31286
-0.840336 -1.05912 8.04916
-0.709835 -0.00475737 8.34567
-0.656137 -0.599622 8.19788
-0.711703 -1.10893 8.12241
-0.820297 -0.694381 8.14978
-0.784847 -0.613099 8.21438
-0.85451 -0.542151 8.27526
-0.654668 -0.39091 8.24573
-0.575346 -0.322199 8.31756
-0.593437 -0.0664906 8.34234
-0.669717 -0.107146 8.31602
-0.708037 -0.719401 8.23001
-0.755557 -0.837269 8.02667
-0.583457 -0.546903 8.27953
-0.495425 -0.391031 8.39986
-0.604091 -0.658545 8.30532
-0.552733 -0.149063 8.43677
-0.662526 -0.831351 8.21213
-0.542113 -0.624399 8.46791
-0.599633 -0.210746 8.3518
-0.697751 -0.9289 8.10919
-0.527884 -0.274647 8.43681
-0.650312 -1.01296 8.17032
-0.646128 -0.948631 8.33938
-0.597823 -0.0606005 8.48144
-0.549244 -0.444044 8.30189
-0.690483 -0.204994 8.31174
-0.917238 -0.76166 8.13156
-0.660075 0.0431794 8.46738
-1.01511 -0.833097 8.15618
-0.766451 -0.169146 8.35524
-0.939943 -0.506513 8.36398
-1.17148 -0.867114 8.3925
-1.09311 -1.03495 8.29735
-1.08345 -0.857109 8.26831
-0.94558 -0.930126 8.11672
-0.954181 -0.582278 8.28102
-0.94938 -1.06503 8.22215
-1.0145 -0.656384 8.45693
-0.758424 -0.0589568 8.51554
-1.01104 -0.872667 8.59865
-0.78294 -0.252494 8.59841
-0.836553 -0.28853 8.48101
-0.99863 -0.691697 8.33112
-1.03774 -0.774065 8.41643
-0.722933 -0.29271 8.29393
-0.733456 -0.137183 8.61463
-0.929642 -0.599178 8.4062
-0.871191 -0.385586 8.41407
-0.856885 -0.492059 8.47633
-0.823464 -0.39429 8.55107
-0.73492 0.0437319 8.44777
-0.91886 -0.590293 8.54111
-0.786967 -0.181611 8.49184
