ply
    format ascii 1.0           
    element vertex 68
    property double x           
    property double y           
    property double z           
    end_header
-0.317975 -0.113107 1.67835
-0.34208 -0.068773 1.64582
-0.26544 -0.119752 1.83985
-0.509465 0.0465895 1.77904
-0.256543 -0.250035 1.8045
-0.345152 -0.133159 1.62456
-0.456006 -0.0399344 1.74351
-0.210205 -0.141103 1.85602
-0.551438 0.0238074 1.75107
-0.375374 -0.278733 1.67265
-0.28932 -0.14216 1.72871
-0.223376 -0.193798 1.83532
-0.50792 -0.0338047 1.71053
-0.269235 -0.169841 1.80076
-0.283283 -0.203839 1.74593
-0.485681 -0.134478 1.69749
-0.322676 -0.181867 1.68518
-0.53953 -0.101943 1.70156
-0.329933 -0.307804 1.72432
-0.307445 -0.250124 1.72791
-0.383817 -0.337871 1.69646
-0.44488 -0.0806178 1.70207
-0.546141 -0.214257 1.69544
-0.394318 -0.219245 1.68437
-0.294114 -0.283285 1.78189
-0.494556 -0.250212 1.68959
-0.489242 -0.193301 1.70078
-0.393405 -0.0968065 1.64285
-0.544386 -0.272009 1.70931
-0.48622 -0.30868 1.72556
-0.438914 -0.193081 1.6712
-0.443472 -0.343285 1.71326
-0.534954 -0.16186 1.71397
-0.494808 -0.0858198 1.7272
-0.562789 -0.327305 1.77037
-0.425754 -0.286764 1.71268
-0.405754 -0.383294 1.75023
-0.511892 -0.351373 1.75878
-0.55563 -0.378256 1.80059
-0.545376 -0.0641142 1.74503
-0.441676 -0.129794 1.66043
-0.384838 -0.159206 1.67353
-0.460655 -0.380029 1.76652
-0.582818 -0.0216364 1.76636
-0.581271 0.0560188 1.78509
-0.195782 -0.129148 1.84155
-0.509849 0.0480059 1.78158
-0.209898 -0.181186 1.81911
-0.27922 -0.135773 1.71868
-0.246151 -0.237107 1.78942
-0.311507 -0.109553 1.67321
-0.504609 -0.0131268 1.76892
-0.251647 -0.108067 1.82486
-0.312181 -0.0639103 1.70762
-0.225417 -0.0977544 1.88088
-0.256524 -0.156655 1.78549
-0.29402 -0.110163 1.76737
-0.412554 -0.0431709 1.82481
-0.460108 -0.0308385 1.80166
-0.380564 -0.0622035 1.75228
-0.535847 -0.00280778 1.85666
-0.372146 -0.0766347 1.81264
-0.372398 -0.0722407 1.69483
-0.202711 -0.169766 1.8791
-0.517542 -0.0367377 1.82941
-0.285585 -0.12057 1.87954
-0.347932 -0.12675 1.89132
-0.55495 0.0430182 1.82917
