ply
    format ascii 1.0           
    element vertex 79
    property double x           
    property double y           
    property double z           
    end_header
-0.423989 -0.407865 2.7637
-0.385654 -1.04407 2.28575
-0.560628 -1.13012 2.33094
-0.534895 -0.733979 2.44131
-0.488222 -0.83093 2.39653
-0.690916 -0.910576 2.39565
-0.459736 -0.977963 2.34458
-0.623488 -0.981398 2.37282
-0.555389 -1.0384 2.35844
-0.428938 -1.14516 2.28941
-0.464701 -1.0567 2.3158
-0.445258 -0.720937 2.45493
-0.462758 -0.598035 2.52006
-0.693363 -1.03191 2.39338
-0.553536 -0.617154 2.5618
-0.748109 -0.954046 2.4578
-0.3842 -0.559288 2.5708
-0.528281 -0.943297 2.38112
-0.580676 -0.700311 2.50822
-0.44609 -0.899474 2.36537
-0.638769 -0.843993 2.49392
-0.501814 -0.508385 2.68126
-0.501968 -0.666418 2.49551
-0.39257 -0.8198 2.45664
-0.626687 -1.0859 2.38306
-0.390991 -0.672662 2.49867
-0.54356 -0.872292 2.44028
-0.406928 -0.501419 2.6318
-0.312079 -0.823616 2.52774
-0.624169 -1.17741 2.40266
-0.540174 -1.20966 2.35802
-0.349428 -1.1154 2.28549
-0.612112 -0.9105 2.42447
-0.477268 -0.572659 2.60776
-0.475642 -0.802293 2.46102
-0.477506 -1.13763 2.35226
-0.381138 -0.761429 2.51983
-0.332266 -0.987998 2.41196
-0.396959 -1.00216 2.35786
-0.310316 -1.076 2.35281
-0.331082 -0.700507 2.56207
-0.322888 -0.625915 2.61114
-0.399394 -0.899007 2.43657
-0.322286 -0.931873 2.44347
-0.572633 -0.7897 2.50308
-0.545709 -0.575802 2.66315
-0.455145 -0.378114 2.84632
-0.5163 -0.649284 2.73553
-0.524065 -0.573262 2.74272
-0.512302 -0.66946 2.45108
-0.48894 -0.598852 2.50728
-0.612171 -0.864389 2.63826
-0.688912 -0.999436 2.57892
-0.411051 -0.333063 2.75468
-0.44051 -0.290539 2.83855
-0.583062 -0.696717 2.61245
-0.677321 -0.825561 2.41002
-0.531125 -0.543158 2.5721
-0.739693 -0.86045 2.46395
-0.564854 -0.625772 2.50967
-0.473277 -0.763116 2.41902
-0.629122 -0.756562 2.50199
-0.69432 -1.00041 2.46531
-0.666174 -1.00697 2.66742
-0.684398 -0.9429 2.40438
-0.441522 -0.406693 2.70536
-0.628702 -1.0798 2.42397
-0.449652 -0.534093 2.52726
-0.544624 -0.721549 2.69629
-0.692906 -1.06429 2.51274
-0.394927 -0.963557 2.31514
-0.643903 -0.808352 2.58235
-0.656592 -0.907357 2.58477
-0.543068 -0.629638 2.59211
-0.471432 -0.497935 2.60779
-0.537247 -0.791897 2.4506
-0.40194 -0.437032 2.6289
-0.662569 -0.841766 2.51182
-0.486601 -0.432337 2.65703
