ply
    format ascii 1.0           
    element vertex 72
    property double x           
    property double y           
    property double z           
    end_header
0.229992 -0.55695 2.55293
0.283351 -0.431715 2.5471
0.0224072 -0.375851 2.53852
0.156878 -0.39925 2.53552
0.321804 0.106095 2.41667
0.265014 -0.150971 2.4476
0.347426 -0.585655 2.6019
0.368531 0.217142 2.45984
0.623656 -0.309696 2.75404
0.3893 0.00315207 2.45457
0.0530825 0.914075 2.91604
0.438937 -0.516614 2.65357
0.446621 0.120633 2.48009
0.193715 0.697809 2.85293
0.136624 0.459434 2.757
0.146564 0.56252 2.81536
0.424687 -0.390753 2.66953
0.25884 0.512245 2.86026
0.439872 -0.22672 2.60607
0.312627 -0.231308 2.54016
0.436819 -0.199172 2.55983
0.586612 -0.548099 2.79914
0.331238 -0.33816 2.61645
0.636251 -0.424386 2.76389
0.367102 -0.107685 2.52262
0.525137 -0.0468755 2.80089
0.54445 -0.498048 2.70836
0.573447 -0.18283 2.85272
0.446268 -0.0316359 2.59093
0.39335 -0.616324 2.70517
0.465805 -0.630486 2.83419
0.668211 -0.340222 2.84769
0.499289 -0.346057 2.74408
0.478862 0.0604679 2.82712
0.421789 0.0901599 2.60291
0.446019 -0.122101 2.76513
0.656417 -0.448958 2.85773
0.443829 0.00144129 2.71558
0.331098 0.372641 2.83576
0.351379 0.258586 2.80737
0.291531 -0.478263 2.65569
0.0737235 0.669506 2.80002
0.259018 0.312141 2.74542
0.148029 0.348627 2.7287
0.0260021 0.392816 2.72715
0.0935158 0.783762 2.87405
-0.032214 0.592684 2.82445
0.268899 -0.022252 2.47109
0.252174 0.194458 2.47994
0.0575943 0.262131 2.66426
0.163034 -0.0846123 2.51162
0.104845 -0.31081 2.61433
0.189393 0.080998 2.47442
-0.00227608 -0.260726 2.60738
-0.0306083 -0.473654 2.61835
0.17859 0.235199 2.66344
-0.00570587 0.155576 2.69055
0.118694 -0.561954 2.63988
0.0105342 -0.0700424 2.69384
0.175031 -0.222045 2.55568
0.0335527 0.478961 2.8385
0.22515 0.399754 2.81243
0.525633 -0.0498088 2.80763
0.46871 -0.636858 2.83574
0.523572 -0.27381 2.80245
0.446215 -0.0344121 2.60023
0.453814 -0.123011 2.76829
0.542371 -0.499067 2.71524
0.476301 0.0600907 2.83991
0.390999 -0.620305 2.71199
0.66722 -0.343247 2.85525
0.585879 -0.554503 2.80774
