ply
    format ascii 1.0           
    element vertex 69
    property double x           
    property double y           
    property double z           
    end_header
-0.29955 -0.53369 1.2454
-0.312181 -0.246092 1.26765
-0.299491 -0.470389 1.23885
-0.275943 -0.531644 1.22178
-0.237282 -0.447063 1.19914
-0.272553 -0.39908 1.21819
-0.304438 -0.185972 1.26334
-0.275948 -0.488897 1.22136
-0.183245 -0.486722 1.18746
-0.239641 -0.543798 1.20866
-0.252504 -0.510949 1.19907
-0.264952 -0.430727 1.21246
-0.293348 -0.436891 1.23135
-0.290406 -0.269132 1.25429
-0.280045 -0.329254 1.24849
-0.343032 -0.484759 1.32644
-0.305638 -0.321767 1.2653
-0.252475 -0.47706 1.2004
-0.307156 -0.511627 1.2674
-0.292294 -0.354749 1.26051
-0.311392 -0.535331 1.28551
-0.312621 -0.366886 1.2932
-0.350976 -0.510768 1.32902
-0.324859 -0.322905 1.2914
-0.302116 -0.386301 1.26637
-0.326926 -0.516018 1.30739
-0.316602 -0.46115 1.26468
-0.269349 -0.300177 1.25871
-0.309835 -0.29335 1.28051
-0.310307 -0.430621 1.26197
-0.317549 -0.475055 1.31459
-0.313838 -0.257296 1.29803
-0.284275 -0.507529 1.24557
-0.301397 -0.482853 1.27166
-0.312285 -0.497157 1.29367
-0.290616 -0.406741 1.24309
-0.249518 -0.550193 1.26165
-0.313519 -0.444675 1.29148
-0.265832 -0.457768 1.22719
-0.304778 -0.408861 1.29152
-0.257307 -0.553082 1.29665
-0.330479 -0.528333 1.34485
-0.301704 -0.342264 1.30571
-0.299086 -0.525114 1.33334
-0.307967 -0.429373 1.3103
-0.31115 -0.209465 1.28878
-0.238866 -0.414077 1.19952
-0.274352 -0.380904 1.24363
-0.219978 -0.518976 1.19614
-0.206434 -0.411576 1.1946
-0.186548 -0.522271 1.19422
-0.15383 -0.448294 1.19793
-0.222135 -0.38862 1.21408
-0.216344 -0.472821 1.20449
-0.185522 -0.458187 1.20046
-0.203586 -0.497577 1.2096
-0.252765 -0.47636 1.20003
-0.228926 -0.371252 1.25237
-0.176352 -0.435836 1.21496
-0.257581 -0.359343 1.25449
-0.149701 -0.428008 1.22285
-0.27435 -0.197405 1.28376
-0.327041 -0.515274 1.307
-0.342696 -0.486474 1.32576
-0.350981 -0.511288 1.32713
-0.303448 -0.408438 1.29206
-0.314107 -0.444472 1.29023
-0.313424 -0.256305 1.299
-0.316526 -0.474703 1.31546
