ply
    format ascii 1.0           
    element vertex 68
    property double x           
    property double y           
    property double z           
    end_header
-0.23203 0.946585 2.79689
-0.235865 0.224921 2.90058
-0.906033 -0.489735 3.07116
-0.349954 -0.866677 2.92835
-0.233174 0.531086 2.84467
-0.178703 -0.958361 3.01563
-0.169717 -0.350042 2.86142
-0.160757 -0.788532 2.90115
-0.345165 -0.35167 2.8535
-0.348531 0.111287 2.9197
-0.18332 -0.174984 2.84261
-0.128352 -0.607008 2.88807
-0.333518 0.666535 2.81691
-0.429626 -0.515139 2.88319
-0.537331 0.312704 2.90841
-0.97203 -0.619359 3.06347
-0.303858 -0.640341 2.90246
-0.358355 0.868994 2.87362
-0.41372 0.446572 2.90012
-0.382576 0.286439 2.87383
-0.569355 -0.432407 2.91886
-0.43933 -0.0396465 2.92619
-0.521021 -0.842964 2.93985
-0.342292 -0.179583 2.89082
-0.501198 -0.277713 2.91316
-0.600928 -0.702575 2.9886
-0.688652 -0.587883 3.06532
-0.814252 -0.672761 3.07769
-0.541537 0.0882036 2.99027
-0.444421 0.654876 2.93347
-0.703454 -0.808489 3.05743
-0.440089 -0.701421 2.96906
-0.974473 -0.700653 3.21582
-0.415571 -0.933168 3.20735
-0.556211 -0.912682 3.31953
-0.557396 -0.544522 3.01266
-0.626898 -0.323716 3.01004
-0.554476 -0.128501 3.03259
-0.542139 0.113988 3.17581
-0.526733 0.2342 3.04166
-0.501521 0.453642 3.04757
-0.897081 -0.544825 3.22783
-0.0340836 -0.458137 2.90974
-0.537883 0.311609 2.91079
-0.642892 -0.221203 3.11631
-0.252658 -0.0531066 2.92455
-0.00808871 -0.28523 2.88737
-0.234542 0.220498 2.89257
-0.761526 -0.452374 3.11305
-0.170742 -0.346272 2.86419
-0.248773 -0.473662 2.93798
-0.172108 -0.965172 3.0028
0.0415648 -0.142703 2.96383
0.182198 -0.699725 3.05671
-0.193307 0.0696731 3.00215
0.139901 -0.28625 2.9595
0.00928501 -0.595939 3.01659
0.163678 -0.530799 3.06856
0.317455 -0.492927 3.14487
0.108993 -0.882024 3.0938
-0.0277534 -0.847614 3.01017
-0.192854 0.37542 2.93598
0.0324005 -0.720592 3.06984
0.233051 -0.62971 3.18079
-0.184524 0.916694 2.95769
0.276718 -0.362193 3.24658
0.0567876 -0.373272 3.03954
0.175449 -0.398577 3.16826
