ply
    format ascii 1.0           
    element vertex 103
    property double x           
    property double y           
    property double z           
    end_header
0.191123 0.0645208 0.638255
0.191088 0.064875 0.638559
0.191198 0.0641961 0.638225
0.191334 0.0642564 0.638269
0.191214 0.0643118 0.63825
0.191072 0.0642133 0.638246
0.191246 0.0656236 0.639079
0.191034 0.0646595 0.638409
0.191165 0.0650589 0.638711
0.190761 0.0642319 0.638367
0.191175 0.0647904 0.638527
0.191188 0.0655022 0.638904
0.191136 0.0651699 0.638766
0.190949 0.0642636 0.638273
0.191229 0.0653901 0.638847
0.191156 0.0644166 0.638274
0.191296 0.0643598 0.638333
0.191035 0.0643907 0.638313
0.191119 0.0654107 0.638865
0.191211 0.0648804 0.638594
0.190984 0.0641211 0.63825
0.191131 0.0645748 0.63837
0.191019 0.0645131 0.638316
0.190764 0.0641385 0.638356
0.191143 0.0649451 0.638638
0.191093 0.0655007 0.638969
0.190876 0.0645015 0.638525
0.190854 0.0644109 0.638455
0.190876 0.0641618 0.638317
0.190935 0.0643476 0.638372
0.191067 0.065053 0.63876
0.191015 0.0647813 0.638606
0.19098 0.0646977 0.638526
0.190851 0.0642533 0.638415
0.190958 0.0644557 0.638397
0.19119 0.0641054 0.638327
0.191044 0.0649491 0.638654
0.191136 0.0643302 0.638348
0.190894 0.0645482 0.638643
0.190954 0.0645817 0.638513
0.191069 0.0653592 0.63897
0.19121 0.0646534 0.638445
0.191098 0.0652638 0.638917
0.191281 0.0648033 0.63858
0.191113 0.0647029 0.638488
0.191095 0.0640951 0.638296
0.19123 0.06528 0.638878
0.191434 0.0642977 0.638425
0.191252 0.0649691 0.638655
0.191308 0.0651566 0.63891
0.191292 0.0641464 0.638298
0.191222 0.0651568 0.638829
0.191261 0.0645716 0.63852
0.191262 0.0646962 0.638536
0.19131 0.064898 0.638707
0.191351 0.0643587 0.638427
0.191281 0.0652095 0.639033
0.191291 0.065538 0.639141
0.19132 0.0647235 0.638656
0.19124 0.0655214 0.639003
0.191266 0.0654117 0.638953
0.191298 0.0646194 0.638618
0.191256 0.064992 0.638786
0.191383 0.0642525 0.638359
0.191379 0.0641792 0.638395
0.191264 0.0653106 0.638969
0.191251 0.0650575 0.638879
0.191315 0.064974 0.63887
0.191283 0.0654324 0.639075
0.191115 0.0654063 0.638867
0.191073 0.0652706 0.638939
0.191226 0.0646462 0.638459
0.191194 0.0647868 0.638531
0.191156 0.0649459 0.63863
0.191302 0.0643776 0.638337
0.191117 0.0648676 0.638566
0.19106 0.0649441 0.638657
2.57011 4.34365 -6.96712
0.190994 0.064477 0.63895
0.19056 0.0631023 0.640356
-1.41626 -3.0268 5.74509
0.19115 0.0641059 0.638579
0.19029 0.0634008 0.640777
0.190727 0.0637704 0.639295
0.191106 0.0649062 0.638327
0.191028 0.0643545 0.63814
0.191237 0.0646068 0.637617
0.19121 0.0647519 0.637504
0.191395 0.0652237 0.637098
0.191016 0.0646354 0.637762
0.191047 0.0654812 0.639136
0.191328 0.0651745 0.637317
0.191169 0.0647298 0.637777
0.191031 0.0649356 0.638518
0.191302 0.065018 0.637264
0.191025 0.0647459 0.638432
0.190966 0.0653285 0.639174
0.190954 0.0645025 0.637836
0.191006 0.0646815 0.638339
0.250783 0.16564 0.468487
0.190529 0.0637586 0.639571
0.19084 0.0646059 0.638539
0.191051 0.0650596 0.638755
