ply
    format ascii 1.0           
    element vertex 70
    property double x           
    property double y           
    property double z           
    end_header
-0.380347 -0.047712 0.328246
-0.380216 -0.0443377 0.329242
-0.380439 -0.0473208 0.327602
-0.38033 -0.0460225 0.328114
-0.380237 -0.0453871 0.328684
-0.380069 -0.0481684 0.327213
-0.380364 -0.0466799 0.328225
-0.380399 -0.0439065 0.329226
-0.380169 -0.0453037 0.328333
-0.380246 -0.0476573 0.327512
-0.38028 -0.0478697 0.327856
-0.380433 -0.046816 0.327826
-0.379956 -0.0477235 0.326925
-0.380298 -0.048162 0.327579
-0.380134 -0.0461961 0.327803
-0.380321 -0.0475041 0.327891
-0.380234 -0.0485079 0.327798
-0.380259 -0.0449714 0.328565
-0.380134 -0.0445786 0.329032
-0.380138 -0.0485337 0.32739
-0.380272 -0.0463552 0.32835
-0.380314 -0.0457999 0.328453
-0.380401 -0.04383 0.328879
-0.37998 -0.0454853 0.327994
-0.37987 -0.0480891 0.326874
-0.380057 -0.0465989 0.327489
-0.380416 -0.0484017 0.328193
-0.380157 -0.0474702 0.327152
-0.380299 -0.0486683 0.328133
-0.380282 -0.0460655 0.328569
-0.379634 -0.0477336 0.326676
-0.380189 -0.0456996 0.328186
-0.380244 -0.0441867 0.328592
-0.380081 -0.0458537 0.327905
-0.380229 -0.046985 0.327487
-0.380188 -0.0465452 0.327845
-0.379945 -0.0476984 0.327308
-0.379737 -0.0474107 0.326916
-0.379863 -0.0459872 0.327665
-0.379663 -0.0447008 0.328428
-0.379805 -0.0484273 0.327221
-0.379536 -0.0480701 0.326753
-0.38007 -0.0471328 0.327136
-0.379967 -0.0448667 0.32845
-0.379697 -0.0455813 0.327867
-0.380407 -0.0472086 0.327221
-0.379787 -0.0487125 0.327523
-0.3801 -0.0485621 0.327397
-0.380251 -0.0441877 0.32856
-0.380375 -0.0477477 0.328233
-0.380099 -0.0433642 0.329103
-0.380257 -0.0463727 0.328296
-0.380319 -0.0474963 0.327939
-0.380424 -0.0440216 0.329152
-0.380347 -0.0460951 0.328536
-0.380283 -0.0488203 0.327946
-0.379961 -0.047689 0.327306
-0.380298 -0.0482392 0.32807
-0.380332 -0.0470858 0.328193
-0.380331 -0.0466941 0.328214
-0.380228 -0.0469764 0.327468
-0.380154 -0.0446688 0.328948
-0.380383 -0.0474269 0.328354
-0.380191 -0.0457147 0.32816
-0.378908 -0.0462832 0.328815
-4.32944 0.798792 -4.61964
-0.374617 -0.0466029 0.33646
-0.380091 -0.0472544 0.326561
-0.381884 -0.0458997 0.32532
-0.123974 -0.101893 0.630046
