ply
    format ascii 1.0           
    element vertex 95
    property double x           
    property double y           
    property double z           
    end_header
-0.214031 0.129076 1.77308
-0.364463 -0.451224 1.73699
-0.148808 -0.495863 1.72016
-0.306586 -0.495271 1.73172
-0.199315 -0.0123472 1.71267
-0.217619 -0.279668 1.71055
-0.100697 -0.46736 1.7247
-0.0476917 -0.477443 1.71425
-0.215746 -0.489706 1.73881
-0.18257 -0.444671 1.73652
-0.217731 -0.11091 1.72674
-0.0559371 -0.422716 1.72748
-0.293084 -0.398453 1.68943
-0.214531 -0.167861 1.72031
-0.000315771 -0.440655 1.72922
-0.129452 -0.424825 1.71356
-0.251704 -0.527734 1.75865
-0.311746 -0.440371 1.74126
-0.411584 -0.469676 1.77183
-0.234861 -0.22367 1.70569
-0.219699 -0.36729 1.6846
-0.458871 -0.438075 1.79594
-0.281418 -0.21188 1.73653
-0.40463 -0.413274 1.7704
-0.26965 -0.155293 1.73068
-0.182084 -0.0679931 1.73397
-0.234154 0.195179 1.81102
-0.351051 -0.394707 1.75648
-0.334655 -0.291573 1.77167
-0.262249 -0.478336 1.74911
-0.276445 -0.342615 1.67521
-0.0995672 -0.390359 1.74109
-0.235137 -0.420182 1.71591
-0.269395 -0.265992 1.73602
-0.252672 0.136538 1.82282
-0.177582 -0.229237 1.71459
-0.278098 -0.0940871 1.72782
-0.244168 -0.0471396 1.74004
-0.290929 -0.0184879 1.7675
-0.241893 0.0117121 1.74608
-0.439128 -0.381131 1.809
-0.184719 -0.530818 1.75294
-0.156671 0.100078 1.81286
-0.308383 -0.529841 1.76748
-0.316409 -0.179009 1.76712
-0.348574 -0.491695 1.76816
-0.438267 -0.481565 1.83377
-0.314181 -0.349946 1.7213
-0.477317 -0.395375 1.83948
-0.356381 -0.270197 1.82396
-0.314628 -0.236432 1.77939
-0.394182 -0.369721 1.79724
-0.390877 -0.50239 1.80739
-0.35541 -0.327391 1.8144
-0.344361 -0.523103 1.80973
-0.2717 0.0463228 1.79327
-0.172857 0.0286161 1.75574
-0.142118 -0.126713 1.80192
-0.186815 -0.302955 1.75604
-0.156804 -0.34678 1.77694
-0.0154741 -0.407084 1.76949
-0.137369 -0.287809 1.78743
-0.0612542 -0.381568 1.77683
-0.182084 -0.147014 1.76013
-0.242805 -0.335143 1.73454
-0.16584 -0.197003 1.7553
-0.191914 -0.372142 1.73678
-0.153391 -0.0547967 1.81624
-0.13375 -0.517034 1.77447
-0.193822 0.153494 1.8203
-0.138515 -0.322043 1.82993
-0.00615703 -0.495683 1.7515
-0.27354 0.0475766 1.79166
-0.26968 -0.268711 1.73579
-0.333131 -0.296473 1.77256
-0.156422 0.104369 1.80876
-0.474842 -0.402187 1.8312
-0.242434 0.0145588 1.74797
-0.293081 -0.0182151 1.77295
-0.244133 -0.525958 1.76946
-0.40862 -0.469371 1.76826
-0.280428 -0.214994 1.74269
-0.348848 -0.396451 1.75735
-0.314034 -0.239176 1.77963
-0.391105 -0.372747 1.79517
-0.437351 -0.387667 1.80619
-0.254838 0.143056 1.82392
-0.439219 -0.370859 1.856
-0.350957 -0.334016 1.81255
-0.311319 -0.351694 1.72912
-0.354569 -0.277802 1.82047
-0.317116 -0.178834 1.76912
-0.302197 -0.0772927 1.77896
-0.237093 0.204453 1.8069
-0.217976 0.0576405 1.7802
