ply
    format ascii 1.0           
    element vertex 71
    property double x           
    property double y           
    property double z           
    end_header
-0.602643 -0.427533 2.19595
-0.468432 -0.631063 2.07693
-0.503986 -0.65707 2.02931
-0.571618 -0.530907 2.08184
-0.585748 -0.332965 2.28171
-0.645887 -0.569598 2.03327
-0.583124 -0.474094 2.16799
-0.637916 -0.307801 2.29091
-0.593063 -0.3895 2.23895
-0.55201 -0.577765 2.07023
-0.595397 -0.496442 2.1238
-0.530541 -0.701182 2.00467
-0.519585 -0.53953 2.16864
-0.631814 -0.7166 1.98229
-0.46336 -0.686266 2.05613
-0.534824 -0.487726 2.19084
-0.693489 -0.690608 2.00039
-0.592881 -0.563661 2.03906
-0.492348 -0.59586 2.11077
-0.607496 -0.612117 2.01883
-0.559804 -0.753569 1.9902
-0.554397 -0.621613 2.04013
-0.654163 -0.49858 2.12228
-0.647522 -0.355592 2.25595
-0.625435 -0.526933 2.06516
-0.572244 -0.66211 2.00988
-0.645854 -0.681435 2.01553
-0.684033 -0.729525 1.971
-0.704263 -0.635082 2.04844
-0.648359 -0.753603 1.97032
-0.723176 -0.613768 2.08946
-0.584806 -0.714788 2.02068
-0.654924 -0.632164 2.0305
-0.673892 -0.302517 2.33262
-0.508032 -0.73434 2.01735
-0.759519 -0.776671 2.02894
-0.635815 -0.799666 2.00375
-0.607338 -0.757584 2.00201
-0.686445 -0.424678 2.24214
-0.690749 -0.328386 2.2842
-0.759763 -0.71329 2.0708
-0.645964 -0.404652 2.22297
-0.737997 -0.715429 2.02393
-0.686213 -0.390693 2.28469
-0.725318 -0.680806 2.05838
-0.671564 -0.566464 2.12367
-0.79102 -0.749239 2.06808
-0.75198 -0.649096 2.11532
-0.651946 -0.564434 2.07943
-0.658239 -0.466032 2.21952
-0.682509 -0.523323 2.16164
-0.674277 -0.605516 2.07881
-0.676559 -0.782248 2.00038
-0.718113 -0.797932 2.02301
-0.709968 -0.75256 2.00877
-0.736387 -0.81681 2.06447
-0.679341 -0.484435 2.26603
-0.779225 -0.793896 2.08723
-0.794886 -0.775903 2.13824
-0.669012 -0.534356 2.25843
-0.690604 -0.590428 2.16888
-0.77389 -0.73616 2.11886
-0.630574 -0.485559 2.17444
-0.666749 -0.30047 2.33817
-0.644384 -0.684513 2.01669
-0.743783 -0.694183 2.10342
-0.606827 -0.290123 2.34813
-0.585064 -0.394479 2.24716
-0.63092 -0.717357 1.98336
-0.616842 -0.273024 2.38986
-8.40931 7.52614 -6.56914
