ply
    format ascii 1.0           
    element vertex 76
    property double x           
    property double y           
    property double z           
    end_header
-0.109385 -0.429446 1.24672
-0.304781 -0.525741 1.24489
-0.150921 -0.161896 1.39885
-0.115086 -0.201145 1.39566
-0.124411 -0.347453 1.30627
-0.182625 -0.52347 1.21925
-0.280862 -0.566583 1.22757
-0.166658 -0.247279 1.37804
-0.179569 -0.564471 1.20374
-0.238572 -0.524807 1.22522
-0.169861 -0.347363 1.33015
-0.151009 -0.293392 1.37551
-0.188956 -0.463451 1.24744
-0.082922 -0.283258 1.37194
-0.186523 -0.33135 1.40603
-0.0749212 -0.52813 1.26399
-0.102023 -0.156507 1.419
-0.210664 -0.429518 1.27127
-0.226049 -0.489857 1.25066
-0.255198 -0.441983 1.28434
-0.0909646 -0.610692 1.26475
-0.141223 -0.477571 1.24976
-0.12084 -0.248216 1.37741
-0.270229 -0.503658 1.25556
-0.16354 -0.393613 1.30712
-0.169322 -0.209062 1.40471
-0.184292 -0.288016 1.40215
-0.0895206 -0.392348 1.27481
-0.0666675 -0.190684 1.4334
-0.141795 -0.130847 1.43669
-0.131579 -0.411206 1.28289
-0.120045 -0.325595 1.34867
-0.134611 -0.564398 1.22885
-0.0766261 -0.360379 1.32637
-0.0875231 -0.476558 1.25242
-0.29812 -0.503761 1.29084
-0.199911 -0.393517 1.33719
-0.14569 -0.525032 1.24615
-0.31452 -0.55889 1.26718
-0.22098 -0.56673 1.22095
-0.164346 -0.43735 1.27789
-0.105165 -0.562429 1.27083
-0.06721 -0.436062 1.27057
-0.093908 -0.131818 1.46033
-0.0509229 -0.570131 1.27795
-0.246599 -0.597449 1.23528
-0.113563 -0.104238 1.48079
-0.197718 -0.59666 1.22417
-0.0260538 -0.535435 1.30364
-0.00508401 -0.509872 1.35099
-0.0600009 -0.492301 1.29194
-0.0171016 -0.612347 1.34678
-0.0735692 -0.333129 1.36289
-0.0492365 -0.349518 1.39979
-0.0766963 -0.244227 1.4045
-0.136316 -0.598669 1.25712
-0.0473584 -0.401291 1.39474
-0.0281473 -0.469155 1.3685
-0.0505512 -0.449338 1.3099
-0.0589723 -0.601798 1.30751
-0.00173353 -0.586252 1.38572
-0.0175625 -0.563403 1.34555
-0.0541133 -0.402805 1.30642
-0.0732504 -0.293813 1.42166
-0.159154 -0.59443 1.21992
-0.0579566 -0.437964 1.35572
-0.00685717 -0.62783 1.40037
-0.171837 -0.62596 1.25041
-0.0453439 -0.488604 1.33723
-0.0355343 -0.641292 1.3752
-0.0460004 -0.452712 1.40093
-0.0394663 -0.510584 1.39143
-0.035992 -0.557261 1.40196
-0.0700151 -0.427431 1.42705
-0.111154 -0.193424 1.39251
-0.184767 -0.465593 1.24705
