ply
    format ascii 1.0           
    element vertex 67
    property double x           
    property double y           
    property double z           
    end_header
0.144906 0.872026 2.28396
0.0986484 0.74053 2.28066
0.204647 0.110703 2.21517
0.0625101 0.518671 2.25343
0.029071 0.326747 2.16771
0.0107951 0.437707 2.21333
0.124255 1.02411 2.36703
0.315667 -0.118331 2.34666
0.049683 0.634814 2.25215
-0.0371734 0.23543 2.13597
-0.141598 0.23934 2.15824
0.174698 0.387713 2.29355
0.0381496 -0.0607336 2.19468
0.107847 0.035913 2.18289
0.164233 0.500169 2.27198
0.0628184 0.945013 2.3098
-0.294368 -0.0786573 2.25277
0.284287 -0.03542 2.28806
-0.0387658 -0.160011 2.25121
-0.182595 0.0341183 2.25964
0.0504198 0.229116 2.18776
-0.0340559 0.0292783 2.18945
-0.284792 0.0228799 2.26864
0.00999289 0.838328 2.30191
0.0210639 0.123004 2.18884
-0.0809932 0.334939 2.15261
-0.0855676 0.727664 2.37458
0.193373 -0.00583613 2.24466
0.100938 0.283835 2.25811
-0.0861862 0.137713 2.16957
-0.180242 -0.0691235 2.22858
-0.228247 -0.142248 2.26146
0.211886 -0.114009 2.27019
-0.102253 0.457566 2.23844
0.0803946 -0.114096 2.26274
-0.176955 0.137507 2.23115
-0.0711077 -0.0440827 2.25378
-0.135992 -0.130532 2.2934
0.143988 0.64426 2.32739
-0.267634 0.171725 2.2905
-0.0278263 0.531231 2.29543
-0.429614 -0.0656878 2.44943
-0.00807437 0.721401 2.30378
-0.0496206 0.925989 2.34241
-0.368121 0.0270709 2.36064
0.122136 1.09922 2.40717
-0.455313 0.0296071 2.4947
-0.0537551 0.825506 2.40569
-0.390349 0.0829292 2.43571
-0.349085 -0.137097 2.43016
-0.194706 -0.197821 2.36611
-0.335231 0.237109 2.43558
-0.315671 0.114095 2.37059
-0.275436 0.262412 2.34895
-0.185264 0.241535 2.28649
-0.278146 -0.150242 2.3522
-0.329263 -0.0640089 2.35711
-0.140348 0.471043 2.34459
-0.148853 0.354241 2.32185
-0.0597318 0.616894 2.35766
-0.372219 -0.117669 2.53554
-0.132453 0.295851 2.22844
-0.423604 -0.0278178 2.57828
-0.0602281 0.536687 2.48826
-0.424878 0.0621743 2.64387
-0.244951 -0.156851 2.45939
-0.194324 -0.19619 2.36222
