ply
    format ascii 1.0           
    element vertex 73
    property double x           
    property double y           
    property double z           
    end_header
-0.194888 -0.201408 0.920695
-0.109468 -0.319637 0.8909
-0.156236 -0.267986 0.866752
-0.233566 -0.326804 0.839196
-0.190099 -0.293829 0.853664
-0.158934 -0.348161 0.857309
-0.222468 0.0685965 1.0973
-0.165188 -0.316591 0.846848
-0.195203 -0.114575 0.966408
-0.172964 -0.0171888 1.02988
-0.195651 -0.172026 0.941232
-0.0658669 -0.336324 0.930483
-0.2028 -0.146338 0.961769
-0.181066 0.0181862 1.04027
-0.137827 -0.214897 0.948637
-0.204208 -0.357152 0.859068
-0.159774 0.0779919 1.09283
-0.190472 -0.0853451 0.982916
-0.165965 -0.229545 0.927991
-0.198494 -0.0623459 1.0045
-0.153064 0.0191087 1.06456
-0.15267 -0.151963 0.981791
-0.201173 -0.242726 0.915231
-0.165271 -0.254213 0.903016
-0.153256 0.105811 1.11845
-0.238633 -0.367068 0.851128
-0.115078 -0.379522 0.869754
-0.173015 -0.175424 0.966691
-0.151147 -0.026782 1.05897
-0.139265 -0.334875 0.878305
-0.144027 -0.102204 1.02433
-0.101455 -0.349671 0.878688
-0.165341 -0.10547 0.993445
-0.1577 -0.302863 0.881155
-0.192013 0.102281 1.08963
-0.138495 -0.279564 0.903739
-0.172066 -0.0793573 1.01565
-0.126245 -0.411265 0.885472
-0.082002 -0.368716 0.924532
-0.128614 -0.248452 0.931184
-0.140808 -0.201371 0.990195
-0.126952 -0.24328 0.970472
-0.127876 -0.289054 0.938099
-0.0796299 -0.296688 0.928886
-0.0768103 -0.320194 0.90101
-0.15784 0.0673517 1.12922
-0.166982 -0.0611845 1.04861
-0.174167 -0.375687 0.855407
-0.210929 -0.0375 1.02231
-0.189046 0.120227 1.1254
-0.191177 -0.263274 0.886771
-0.208656 -0.00998913 1.04542
-0.232779 -0.249844 0.925228
-0.189344 0.0663767 1.08164
-0.213571 -0.287261 0.892701
-0.213027 0.0269341 1.05962
-0.183146 0.0332469 1.07462
-0.213728 -0.315509 0.870977
-0.226885 -0.0675759 1.02576
-0.227489 -0.121 0.990778
-0.272027 -0.348113 0.908752
-0.219617 -0.222182 0.939409
-0.236223 -0.302239 0.912328
-0.218255 -0.177039 0.967933
-0.229629 -0.00868008 1.08313
-0.209853 -0.0947693 1.01558
-0.241703 -0.13717 1.01842
-0.214989 -0.15435 0.993373
-0.235875 -0.330018 0.893973
-0.255106 -0.326252 0.92621
-0.249723 -0.38342 0.896236
-0.240019 -0.106679 1.01749
-0.230824 -0.325612 0.837699
