ply
    format ascii 1.0           
    element vertex 69
    property double x           
    property double y           
    property double z           
    end_header
-0.536352 0.207571 1.28574
-0.536344 0.207586 1.28574
-0.536345 0.207662 1.28582
-0.536341 0.207649 1.2858
-0.536371 0.207597 1.28578
-0.536356 0.207583 1.28576
-0.536351 0.20762 1.28579
-0.536379 0.207598 1.28578
-0.536343 0.207639 1.2858
-0.536355 0.207566 1.28575
-0.53637 0.207586 1.28577
-0.536351 0.20763 1.2858
-0.536345 0.207651 1.28581
-0.536359 0.207611 1.28579
-0.536368 0.207573 1.28577
-0.536356 0.207599 1.28579
-0.536365 0.207604 1.28579
-0.536349 0.207592 1.28577
-0.536374 0.20756 1.28578
-0.53635 0.207583 1.28575
-0.53635 0.207612 1.28578
-0.536352 0.207603 1.28577
-0.536363 0.207563 1.28576
-0.536346 0.207599 1.28574
-0.536348 0.207578 1.28573
-0.536354 0.207634 1.28582
-0.536358 0.207584 1.28577
-0.536348 0.207661 1.28583
-0.53635 0.207553 1.28575
-0.536355 0.207563 1.28573
-0.536377 0.207588 1.28578
-0.536375 0.207561 1.28579
-0.536358 0.207574 1.28576
-0.536376 0.20758 1.28579
-0.536376 0.207551 1.28578
-0.536357 0.207621 1.28581
-0.536367 0.207567 1.28578
-0.536364 0.207557 1.28577
-0.536365 0.207615 1.28581
-0.536373 0.207548 1.28577
-0.536362 0.207614 1.2858
-0.536382 0.207553 1.28579
-0.53638 0.207605 1.28579
-0.536379 0.207601 1.28581
-0.536377 0.20759 1.28581
-0.536346 0.207637 1.28581
-0.53638 0.207594 1.28579
-0.536375 0.207554 1.28581
-0.536376 0.207585 1.2858
-0.536345 0.207649 1.28582
-0.536375 0.207599 1.2858
-0.536374 0.207575 1.28579
-0.536361 0.20756 1.28582
-0.536328 0.207644 1.28585
-0.536348 0.207594 1.28584
-0.536376 0.207587 1.28582
-10.4143 2.66715 -2.99123
-0.536371 0.207579 1.28578
-0.536181 0.207476 1.28594
-0.536204 0.207482 1.28589
-0.53625 0.207675 1.2859
-0.536183 0.207517 1.28592
-0.841892 0.183004 1.10445
-0.536253 0.20762 1.28588
-0.536367 0.207585 1.28577
-0.536263 0.207633 1.28585
-0.536316 0.207564 1.28578
-0.536223 0.207571 1.28582
-0.535773 0.207668 1.28613
