ply
    format ascii 1.0           
    element vertex 75
    property double x           
    property double y           
    property double z           
    end_header
-0.783162 -0.353177 3.16085
-0.921753 -0.400472 3.40385
-0.63183 0.0889024 3.1689
-0.838168 -0.508378 3.26194
-0.912227 -0.565124 3.44411
-0.670604 -0.691309 3.24282
-0.261536 0.77302 3.22626
-0.794501 -0.94402 3.37832
-0.597883 0.38568 3.18306
-0.535095 0.788695 3.18929
-0.332974 -0.80567 3.11412
-0.55578 -0.543165 3.22849
-0.64936 -0.914873 3.29558
-0.422966 -0.6734 3.18472
-0.46865 0.341144 3.15275
-0.560409 -0.0946186 3.1349
-0.782112 -0.189816 3.20605
-0.652146 -1.05832 3.39546
-0.372973 0.213791 3.1316
-0.490934 0.64961 3.26535
-0.764029 -0.625865 3.35435
-0.813151 -0.690431 3.50805
-0.830344 -0.769909 3.70619
-0.89294 -0.63422 3.81918
-0.665785 0.329837 3.43959
-0.679346 -1.05289 3.57556
-0.851798 -0.62307 3.65722
-0.732046 -0.787759 3.40173
-0.640363 0.176531 3.41635
-0.635926 0.28537 3.29663
-0.797046 -0.239797 3.37499
-0.802025 -0.883588 3.52314
-0.787036 -0.935982 3.68075
-0.80832 -0.743495 3.88388
-0.458341 0.814691 3.33001
-0.754529 -0.0776952 3.37432
-0.253599 -0.922964 3.26462
-0.843246 -0.356964 3.28992
-0.627722 0.599312 3.31346
-0.679831 -0.0458962 3.23037
-0.689923 0.0578951 3.32668
-0.45826 -0.207655 3.09258
-0.435605 -0.00728824 3.09929
-0.350669 0.606987 3.18809
-0.385167 0.843775 3.20823
-0.312055 -0.0855818 3.09877
-0.652919 -1.05225 3.39265
-0.493053 0.483225 3.15899
-0.616864 -0.317978 3.11799
-0.167936 -0.491234 3.16609
-0.250674 -0.635344 3.17251
-0.299247 0.08026 3.11925
-0.494184 -0.887006 3.3504
-0.269086 -0.367873 3.18217
-0.0602728 -0.619055 3.21078
-0.499523 -0.458267 3.13602
-0.406255 -0.340944 3.16698
-0.353836 -0.514746 3.18594
-0.537733 -0.72355 3.31624
-0.655342 -0.495898 3.15357
-0.302721 -0.23028 3.12701
-0.0518493 -0.461867 3.31381
0.059661 -0.95066 3.43026
-0.199554 -0.781177 3.15359
-0.0606812 -1.03755 3.42607
0.150048 -0.786392 3.44575
-0.146975 -0.315843 3.24289
-0.205344 -0.160527 3.20514
-0.0115504 -0.822486 3.4016
0.218497 -0.63548 3.56315
-0.22346 0.671032 3.27673
0.0718636 -0.637797 3.46941
-0.281316 -0.906623 3.22384
-0.161979 -0.873771 3.34199
-0.529822 0.784851 3.18674
