ply
    format ascii 1.0           
    element vertex 76
    property double x           
    property double y           
    property double z           
    end_header
-0.739284 -0.00609147 5.40381
-0.868814 0.0908924 5.37397
0.0735713 -1.30781 5.05217
-0.21391 -0.699005 5.21599
-0.604304 -0.299273 5.31824
-0.0821106 -1.24271 4.95955
-0.513178 -0.602138 5.19843
-0.185313 -0.928918 4.99675
0.322309 -1.29593 5.33802
-0.909856 0.191197 5.50664
0.164158 -1.45636 5.0804
-0.209509 -0.775956 5.04464
-0.416596 -1.22013 4.78684
-0.0219324 -1.03739 5.03367
-0.271769 -1.20146 4.91565
-0.185802 -1.32704 4.92638
-0.33647 -1.33577 4.87384
0.194022 -1.28761 5.1943
-0.662592 -0.0745976 5.52786
-0.374162 -0.871563 4.99402
-0.498749 -0.452774 5.50397
-0.431025 -1.17467 4.93939
0.317373 -1.41924 5.21584
0.255715 -1.57702 5.18829
-0.0279233 -0.973206 5.28284
-0.524317 -0.286431 5.48834
0.265751 -1.21847 5.49518
0.437837 -1.32668 5.45382
-0.524049 -0.511028 5.32843
-0.151006 -0.863565 5.18401
0.0833911 -1.17341 5.27544
-0.100655 -0.805162 5.33316
0.376976 -1.45571 5.36645
-0.773026 0.082999 5.52067
0.285511 -1.58864 5.354
-0.355767 -0.568715 5.30273
0.436266 -1.51894 5.50402
0.380085 -1.26529 5.60365
0.449154 -1.41068 5.62388
-0.0287313 -1.11122 5.16546
-0.0511838 -0.957973 5.46662
-0.382189 -0.593599 5.50075
0.113924 -1.22831 5.4329
0.0362492 -1.08698 5.40839
0.010933 -1.14279 5.57367
-0.428514 -1.51259 4.93359
-0.696383 -0.473234 5.28529
-0.0877413 -1.24358 4.97014
-0.169148 -1.11305 5.00938
-0.985129 -0.0878152 5.38747
-0.504761 -0.597678 5.19276
-0.819376 -0.134089 5.35888
-0.925208 -0.24996 5.39782
-0.578437 -1.38103 4.91068
-0.0303379 -1.03435 5.0433
-0.572291 -1.25483 4.80226
-0.331398 -1.46899 5.09933
-1.00586 0.0785922 5.44636
-0.644728 -0.616128 5.22136
-0.329511 -1.02424 5.02992
-0.559069 -0.752323 5.18601
-0.363806 -0.858004 4.98262
-0.867136 -0.415144 5.39
-0.396414 -0.715971 5.21492
-0.691192 -0.759231 5.29195
-0.451714 -0.934937 5.07782
-0.0925855 -0.813934 5.33468
-0.872219 0.10077 5.38781
-0.0273224 -0.984008 5.28648
-0.222027 -0.774153 5.04967
-0.516478 -0.51977 5.33046
-0.912719 0.198802 5.52284
-0.427845 -1.17247 4.93604
-0.457837 -1.10655 5.09901
0.281235 -1.24059 5.49697
-0.583294 -1.20669 4.94284
