ply
    format ascii 1.0           
    element vertex 71
    property double x           
    property double y           
    property double z           
    end_header
0.562786 1.29616 2.86987
0.367304 0.402075 2.4824
0.510806 1.12025 2.74185
0.572262 0.0535361 2.29653
0.286577 0.2189 2.51405
0.448923 0.624973 2.58342
0.695101 0.222258 2.36847
0.424376 0.830636 2.66122
0.444865 1.02923 2.76116
0.590051 0.171897 2.35232
0.430713 0.292777 2.45724
0.854036 0.294978 2.384
0.428784 0.723077 2.62812
0.799956 0.206487 2.31286
0.312317 0.100913 2.44103
0.432936 0.929288 2.72099
0.433111 0.511662 2.59414
0.53804 0.697835 2.63314
0.413447 0.140294 2.45679
0.481674 0.39474 2.49312
0.527577 0.893056 2.66836
0.695537 0.110524 2.31252
0.392208 -0.101138 2.50702
0.599246 0.460344 2.5592
0.609416 0.631472 2.60194
0.555528 0.310695 2.47242
0.510621 -0.0352542 2.37133
0.709366 0.420349 2.56212
0.635826 1.00161 2.75787
0.665489 0.791265 2.70147
0.532146 0.571446 2.57085
0.803552 0.0825951 2.30834
0.782218 -0.0161555 2.37156
0.916486 0.202108 2.33551
0.664815 -0.0194407 2.33397
0.622646 0.893907 2.73821
0.618049 1.1122 2.76558
0.881638 0.036361 2.37841
0.94952 0.233507 2.46192
0.690374 0.599209 2.79136
0.765686 0.406333 2.65345
0.931148 0.126335 2.41115
0.668512 1.1735 2.91342
0.658645 0.729487 2.83606
0.614451 1.30427 2.99064
0.682914 0.92365 2.83181
0.704395 -0.0910792 2.43501
0.638448 0.659672 2.69834
0.659075 1.03911 2.88106
0.609426 0.631341 2.59987
0.510568 -0.0346963 2.37345
0.691467 0.223389 2.38063
0.710039 0.416949 2.56222
0.416377 0.140694 2.45787
0.433994 0.92859 2.72175
0.590795 -0.0837519 2.432
0.416889 0.0243097 2.4566
0.482433 1.32485 2.96602
0.510218 0.201714 2.44574
0.23195 0.120742 2.51149
0.491763 0.0898751 2.38033
0.390905 -0.101851 2.5054
0.347722 0.309503 2.53864
0.328456 -0.00135989 2.51831
0.370316 0.967437 2.83701
0.346807 0.753587 2.73562
0.303166 0.34706 2.68665
0.45424 1.16787 2.86899
0.29816 0.435827 2.70017
0.41063 1.13214 2.93855
0.352468 0.849777 2.74365
