ply
    format ascii 1.0           
    element vertex 76
    property double x           
    property double y           
    property double z           
    end_header
0.179337 -0.226543 2.25078
0.179937 -0.236345 2.2382
0.179994 -0.234077 2.24128
0.180017 -0.238017 2.23632
0.180104 -0.234081 2.24136
0.18004 -0.242479 2.23263
0.179913 -0.233872 2.24141
0.17985 -0.234642 2.2401
0.17557 -0.18281 2.30399
0.179524 -0.233234 2.24236
0.179968 -0.234639 2.24035
0.180546 -0.243761 2.2294
0.179915 -0.235158 2.24001
0.186242 -0.353831 2.11715
0.180255 -0.237878 2.23729
0.132879 0.170717 2.91276
0.179459 -0.23335 2.24212
0.180031 -0.233839 2.24152
0.179589 -0.233199 2.24251
0.179557 -0.233409 2.24218
0.180418 -0.241878 2.23364
0.179779 -0.233153 2.24244
0.173556 -0.105455 2.40954
0.180017 -0.234873 2.24035
0.180413 -0.237045 2.2382
0.180327 -0.236116 2.23906
0.17962 -0.233134 2.24243
0.179686 -0.233179 2.24243
0.179692 -0.233362 2.24222
0.180153 -0.23515 2.24014
0.179508 -0.233224 2.24221
0.179589 -0.233181 2.24212
0.17911 -0.22438 2.25392
0.17979 -0.233365 2.24217
0.180802 -0.248241 2.22046
0.180344 -0.235293 2.23954
0.179763 -0.23315 2.24222
3.26666 -7.50981 -20.5454
0.181976 -0.279078 2.17858
0.18051 -0.234323 2.24042
0.181227 -0.244118 2.2305
0.179971 -0.233309 2.24184
0.17994 -0.233456 2.24101
0.180265 -0.23372 2.24134
0.181584 -0.235195 2.23751
0.180117 -0.233702 2.24144
0.180192 -0.233634 2.24126
0.180094 -0.235838 2.23927
0.152126 0.0428457 2.52654
0.179959 -0.233664 2.24162
0.180058 -0.240359 2.23435
0.180554 -0.233979 2.24039
0.179915 -0.233367 2.24204
0.180444 -0.233909 2.24111
0.180267 -0.234192 2.24099
0.180585 -0.233905 2.24008
0.182186 -0.245258 2.22889
0.180521 -0.238384 2.23692
0.180938 -0.237816 2.23703
0.180615 -0.234814 2.24007
0.18105 -0.239128 2.23579
0.180793 -0.235491 2.23927
0.18061 -0.236523 2.23842
0.176307 -0.213888 2.26515
0.180625 -0.233957 2.23941
0.180219 -0.234328 2.24111
0.181556 -0.238621 2.23496
0.180589 -0.235579 2.23931
0.166837 -0.120711 2.36529
0.180026 -0.236617 2.23888
0.182472 -0.254509 2.21984
0.179951 -0.235401 2.23961
0.181145 -0.235067 2.239
0.180265 -0.237226 2.23761
0.167935 -0.023985 2.46554
0.179759 -0.23337 2.24152
