ply
    format ascii 1.0           
    element vertex 105
    property double x           
    property double y           
    property double z           
    end_header
-0.705666 -1.20369 2.66937
-0.730087 -0.852476 2.68342
-0.594852 -0.818695 2.56443
-0.577725 -0.946505 2.45919
-0.470888 -0.615335 2.60838
-0.62301 -0.734062 2.60959
-0.522307 -0.752051 2.54583
-0.431897 -0.344067 2.68429
-0.517503 -0.453892 2.67396
-0.365785 -0.27301 2.66185
-0.459598 -0.520366 2.6192
-0.299825 -0.203275 2.68462
-0.473169 -0.958761 2.43875
-0.541292 -1.18825 2.54188
-0.684645 -1.04678 2.58891
-0.318116 -0.389071 2.64114
-0.275174 -0.119768 2.73519
-0.254873 -1.20177 2.59362
-0.691558 -0.968045 2.65972
-0.387913 -1.00173 2.46177
-0.450543 -0.801713 2.5821
-0.601709 -1.27056 2.58237
-0.574308 -0.618934 2.67986
-0.654006 -0.88411 2.6225
-0.619896 -1.17637 2.61835
-0.372302 -0.610522 2.64544
-0.353131 -0.790656 2.61405
-0.24455 -0.038801 2.80342
-0.467115 -1.05151 2.43092
-0.432017 -1.1748 2.51098
-0.638415 -0.646209 2.74407
-0.408719 -0.442315 2.64015
-0.50688 -0.893862 2.50879
-0.377753 -0.1636 2.75286
-0.577559 -1.03279 2.49735
-0.528535 -0.547322 2.6922
-0.148833 0.023291 2.79526
-0.169027 -0.145415 2.70323
-0.257032 -0.300084 2.65338
-0.377189 -0.870597 2.56333
-0.540191 -0.681318 2.61126
-0.582589 -0.583347 2.78608
-0.60228 -1.10113 2.56172
-0.431257 -0.71007 2.60918
-0.303325 -1.28362 2.61325
-0.0839008 -0.0970435 2.75069
-0.301961 -0.577271 2.71329
-0.279732 -0.895465 2.67852
-0.329889 -1.15292 2.53616
-0.333728 -0.712747 2.69097
-0.106607 -0.197794 2.80198
-0.238519 -0.389466 2.71266
-0.375478 -1.24054 2.56541
-0.421634 -0.93483 2.51202
-0.332165 -0.475599 2.71734
-0.258954 -1.00642 2.80214
-0.482827 -0.306051 2.78515
-0.498266 -0.404518 2.74367
-0.275177 -1.14237 2.69181
-0.200183 -0.244179 2.71005
-0.409142 -1.08163 2.49194
-0.349644 -0.95354 2.64259
-0.176809 -0.31434 2.78834
-0.408753 -1.31263 2.63951
-0.283284 -0.521284 2.79547
-0.472658 -1.26256 2.51646
-0.170654 -0.0434234 2.71541
-0.512359 -1.10232 2.50423
-0.712698 -1.18902 2.90854
-0.562021 -0.483503 2.76141
-0.710821 -0.931058 2.7528
-0.747631 -1.10032 2.8735
-0.622322 -0.960796 2.5605
-0.731264 -1.01727 2.9271
-0.634317 -0.814742 2.69688
-0.627656 -0.735754 2.76412
-0.497504 -0.399673 2.75334
-0.685254 -1.02668 2.84434
-0.639397 -1.1522 2.7293
-0.602281 -0.703603 2.68216
-0.627317 -0.781407 2.84643
-0.673439 -1.11667 2.81329
-0.638113 -0.840182 2.95257
-0.658719 -1.20615 2.82105
-0.604694 -0.74078 2.9414
-0.370566 -0.206429 2.84748
-0.655741 -0.878562 3.08047
-0.689068 -0.915328 3.00148
-0.685971 -0.926862 2.89699
-0.671866 -1.06096 2.70358
-0.534183 -0.442142 2.84908
-0.604912 -0.847201 3.15952
-0.711319 -1.0104 3.02422
-0.582135 -0.635957 2.87348
-0.544125 -0.783733 3.11003
-0.698606 -1.10409 2.96596
-0.458441 -0.528368 2.91663
-0.57003 -0.938585 3.16536
-0.642865 -1.19975 2.98898
-0.627929 -0.875411 2.77098
-0.564071 -0.839955 3.03033
-0.322943 -0.122541 2.82425
-0.566598 -1.12685 3.05404
-0.558255 -1.27318 3.00198
-0.45254 -0.433292 2.9092
