ply
    format ascii 1.0           
    element vertex 70
    property double x           
    property double y           
    property double z           
    end_header
-0.0241083 -0.634119 1.96215
0.0336561 0.60972 2.17479
0.271315 -0.797616 1.93993
0.161145 -0.827277 2.00913
0.134859 -0.288403 1.98436
0.172944 0.538988 2.19114
0.305072 -0.31628 1.91278
0.150824 0.138039 2.05805
0.528236 -0.670306 1.86651
0.423208 -0.824698 1.90659
0.30642 -0.596561 1.90767
0.0960398 -0.576192 1.9359
0.0812154 0.0258823 2.11374
0.411166 -0.990741 1.95805
0.560168 -0.809569 1.8835
0.202376 -0.676209 1.93784
0.158184 0.313823 2.08735
0.395608 -0.493353 1.87796
0.187726 -0.0289297 2.05214
0.0662119 -0.120068 2.10735
0.302072 0.108862 2.04854
0.513937 -0.933359 1.90821
0.0488249 0.224305 2.13992
0.437856 -0.364864 1.91161
0.279254 -0.481765 1.90973
-0.0151165 -0.502865 2.03929
0.601855 -0.558979 1.91994
0.155716 -0.168528 2.03377
0.30109 0.253745 2.10351
0.424413 -0.649122 1.94248
0.336535 -0.0494542 2.06848
0.272137 -0.194273 2.00593
0.114796 -0.483668 2.03071
0.493352 -0.539503 1.97819
0.24475 0.397526 2.17748
0.458478 -0.197982 2.19545
0.666674 -0.810125 1.98812
0.66402 -0.677712 1.93801
0.600318 -0.94184 2.02942
0.42144 -0.0470651 2.18129
0.689565 -0.577323 2.02554
0.350767 -0.199482 2.10679
0.373604 0.121571 2.18503
0.504262 -0.318421 2.13156
0.609493 -0.455136 2.04543
0.485268 -0.39675 2.00712
0.520477 -0.313082 2.25723
0.684 -0.705469 2.06404
0.315868 0.241041 2.22707
0.202869 -0.669372 1.96348
0.521213 -0.944586 1.89082
0.422674 -0.823938 1.91381
0.41624 -1.00445 1.9636
0.135447 -0.285974 1.98658
0.0784285 -0.707676 1.99222
-0.0268134 -0.627919 1.99296
0.320537 -0.907133 2.01283
0.0374846 0.612756 2.18508
0.164146 0.309616 2.08109
0.152811 -0.824449 2.04566
0.419978 -0.646136 1.95299
0.191786 -0.0282886 2.04955
0.115035 -0.479613 2.0556
-0.0222977 -0.494148 2.0636
0.00575929 -0.738207 2.09308
0.0531726 0.229029 2.14216
0.218601 -0.405926 1.99114
0.0659142 -0.111817 2.11722
0.280843 -0.477729 1.91449
0.0817104 0.0351547 2.11471
