ply
    format ascii 1.0           
    element vertex 68
    property double x           
    property double y           
    property double z           
    end_header
-0.635463 -1.16598 3.80858
-0.299595 -0.660584 4.25091
-0.211322 -0.555857 4.22812
-0.247052 -0.918378 4.03659
-0.128774 -0.357252 4.36065
-0.334959 -0.810742 4.22703
-0.693745 -1.11737 3.90603
-0.179258 -1.3104 3.74757
-0.255761 -1.08154 3.9127
-0.568822 -1.26347 3.77935
-0.230283 -0.329782 4.43111
-0.24196 -0.745381 4.16865
-0.246337 -0.425208 4.34961
-0.509302 -1.14621 3.78331
-0.292967 -1.35014 3.73683
0.107609 -1.48242 3.8617
-0.440392 -1.25706 3.75133
-0.415686 -1.36671 3.74913
-0.109613 -1.14281 3.86826
-0.183084 -0.831486 4.10361
-0.385375 -1.1617 3.79849
-0.134656 -0.466167 4.28793
-0.141962 -0.669004 4.20567
0.0011477 -0.733551 4.27855
-0.0399534 -1.49974 3.82488
-0.32562 -1.01878 4.07783
-0.129291 -1.03206 3.91678
-0.201586 -1.22007 3.83324
-0.577881 -1.07675 3.87635
-0.34423 -1.4555 3.76926
-0.525537 -1.37128 3.81031
-0.433753 -1.48148 3.85935
-0.0564942 -0.873154 4.14196
-0.0888065 -1.38289 3.79198
-0.449672 -1.08892 3.87577
-0.129727 -0.99211 4.03173
-0.14984 -1.52865 3.87576
-0.423129 -1.02687 4.20042
-0.217625 -1.44701 3.79656
0.0245023 -1.38758 3.8674
-0.0695835 -1.28915 3.87519
-0.326695 -1.27482 3.8043
-0.024265 -1.05772 3.98054
0.0350628 -1.34266 3.98802
-0.016316 -1.19489 3.96734
-0.308711 -1.17879 3.8665
-0.00894436 -0.590033 4.40635
0.107395 -1.45608 4.00286
0.0760931 -1.61318 3.86961
-0.0462408 -1.61636 3.85955
-0.025509 -1.00218 4.12191
-0.0788128 -0.473328 4.40461
-0.0980025 -0.595074 4.30416
0.0127037 -1.11007 4.20917
-0.303362 -1.51774 3.85922
-0.0260357 -0.877422 4.27598
-0.136577 -0.34876 4.51498
-0.094005 -0.480288 4.54064
-0.0532835 -1.12158 4.08543
0.0832345 -1.60931 3.9958
-0.0447328 -1.24244 4.22937
-0.000828703 -1.24913 4.09632
-0.0381337 -1.37726 4.13839
-0.0814647 -0.720567 4.40743
-0.0642017 -1.01154 4.25084
-0.103444 -1.37566 4.24718
-0.105712 -0.864252 4.40186
0.0403714 -1.52379 4.0678
