ply
    format ascii 1.0           
    element vertex 74
    property double x           
    property double y           
    property double z           
    end_header
-0.138992 0.727051 2.77304
-0.442966 -0.340999 2.44119
-0.269996 0.0563772 2.52754
-0.354433 -0.320752 2.29153
-0.281713 -0.512705 2.8648
-0.269819 0.518327 2.69755
-0.531735 -0.16743 2.67396
-0.421557 -0.222982 2.37433
-0.290858 0.269698 2.67248
-0.270644 -0.439048 2.27448
-0.225246 0.887604 2.95205
-0.369887 -0.459259 2.39161
-0.454913 -0.263386 2.59367
-0.167895 0.300731 2.59297
-0.426992 -0.0976465 2.60665
-0.331555 -0.481878 2.97508
-0.359873 -0.0995795 2.34144
-0.261332 -0.573202 2.35199
-0.480853 -0.266969 2.76873
-0.0242718 -0.0625862 2.38023
-0.136604 0.0734665 2.45688
-0.364885 0.0218518 2.71252
-0.267262 0.116035 2.66575
-0.474242 -0.0671446 2.75347
-0.311753 -0.592292 2.62403
-0.187096 0.382006 2.71936
-0.278775 -0.661724 2.51191
-0.376144 -0.37323 2.67728
-0.311005 0.129927 2.82296
-0.237157 -0.22852 2.29217
-0.086235 0.409985 2.60537
-0.0970666 0.607348 2.69135
0.0690201 0.0324968 2.38507
-0.165675 -0.522815 2.26197
-0.134854 -0.386709 2.27225
-0.367724 -0.42577 2.50759
-0.14239 0.162212 2.57306
-0.0333363 0.264291 2.58789
-0.333689 -0.17017 2.5258
0.220799 -0.157233 2.40528
0.343551 -0.490216 2.50081
0.186926 -0.308527 2.41716
0.194918 -0.02346 2.40634
-0.100423 -0.253343 2.32164
-0.120782 -0.158359 2.44453
0.0104787 -0.192966 2.39044
-0.0122639 -0.440957 2.31583
0.103814 0.235219 2.6187
0.189241 -0.600032 2.45556
-0.139003 -0.633261 2.4161
0.0525673 0.375899 2.63598
-0.213053 0.709595 3.00222
0.0353119 -0.308002 2.3275
0.211412 -0.438093 2.46421
0.0106988 0.115639 2.58968
-0.0526499 -0.571451 2.31541
0.334423 -0.356002 2.49642
-0.257672 -0.0833083 2.43699
-0.227512 0.886458 2.95138
0.11464 -0.204665 2.47517
0.011211 0.585028 2.77529
0.277611 -0.57541 2.55447
-0.277555 -0.669389 2.51276
0.0861265 -0.407709 2.41885
0.455283 -0.253019 2.75432
0.457555 -0.390369 2.70914
0.275574 -0.24193 2.55068
0.388683 -0.285415 2.63457
0.128387 0.0629184 2.48471
0.0179527 0.68914 2.88608
0.342652 -0.157124 2.75961
0.0662502 -0.512493 2.48759
0.0138156 -0.6031 2.42622
0.0897075 0.437956 2.80684
