ply
    format ascii 1.0           
    element vertex 73
    property double x           
    property double y           
    property double z           
    end_header
-1.42645 -1.03669 6.24527
-1.60445 -2.47892 6.00267
-1.35644 -0.870607 6.3959
-1.55772 -1.85487 5.7963
-1.57829 -1.63934 6.0674
-1.48579 -2.5215 5.85719
-1.65211 -1.90185 6.04093
-1.63895 -2.29996 6.2471
-1.63037 -2.34287 6.06731
-1.53784 -1.53924 5.91569
-1.22963 -2.02667 5.56177
-1.47874 -1.3401 6.03243
-1.24579 -1.8366 5.55943
-1.54488 -2.03944 5.85284
-1.33043 -1.97188 5.69238
-1.26249 -2.19073 5.77011
-1.46065 -2.28231 5.8494
-1.53562 -1.69557 5.91253
-1.50109 -1.71616 5.75853
-1.63944 -2.44774 6.1806
-1.65749 -2.02258 6.11505
-1.50784 -2.28426 6.00299
-1.12414 -2.21158 5.64602
-1.44738 -1.18125 6.06787
-1.59638 -2.39271 6.36049
-1.40405 -1.83278 5.71111
-1.48609 -1.48831 6.20868
-1.53573 -1.49788 6.05751
-1.38261 -1.3773 5.93605
-1.55702 -1.79471 6.05854
-1.35731 -0.908919 6.24976
-1.4394 -1.59472 5.80575
-1.31326 -1.10937 6.02184
-1.44387 -1.36263 6.18644
-1.56886 -1.91369 5.92911
-1.21231 -0.996452 6.13308
-1.51618 -2.10853 6.11181
-1.32931 -1.25807 5.98212
-1.36116 -1.47141 5.84557
-1.04003 -1.94251 5.53943
-1.21027 -0.947466 6.27479
-1.27244 -1.58127 5.79068
-0.918695 -2.23384 5.64347
-1.51654 -2.26001 6.1492
-1.39759 -1.94147 5.84656
-1.24612 -1.81847 5.72538
-1.22292 -0.825091 6.36732
-1.02457 -2.34075 5.71404
-1.18702 -1.19494 6.00553
-1.09125 -1.45736 5.95317
-1.34609 -1.71555 5.79897
-1.18066 -1.34617 6.00502
-0.962199 -2.09132 5.68079
-1.48718 -2.13615 5.92839
-1.17612 -1.7032 5.80279
-1.10105 -1.81899 5.63431
-1.13828 -1.57601 5.87884
-1.2456 -1.45757 5.9289
-0.779594 -2.12409 5.81535
-1.53071 -1.5078 6.07904
-1.14942 -1.08534 6.25163
-0.866942 -2.00172 5.76235
-0.988431 -1.7783 5.96405
-1.11767 -2.05931 5.66646
-1.07983 -1.73226 5.90453
-0.939922 -2.4384 5.82358
-0.973184 -1.89322 5.87167
-1.21779 -0.81154 6.36779
-0.851525 -2.28447 5.76743
-1.11624 -1.20996 6.13764
-1.07858 -1.62942 6.02615
-1.01743 -1.941 5.70847
-1.13828 -1.36982 6.17229
