ply
    format ascii 1.0           
    element vertex 83
    property double x           
    property double y           
    property double z           
    end_header
-0.572175 -0.967099 3.09351
-0.298335 -0.719842 2.89414
-0.264182 -0.33427 3.08953
-0.260553 -0.114896 3.18419
-0.342713 -0.235077 3.16564
-0.448876 -0.772763 2.9363
-0.450138 -0.871497 2.93365
-0.259589 -0.49202 3.02325
-0.352961 -0.817243 2.89102
-0.498646 -0.938086 3.03845
-0.462107 -1.10938 3.02088
-0.0602599 -0.995694 2.97467
-0.352993 -1.06918 2.88931
-0.383978 -0.608834 3.04028
-0.324452 -0.638596 2.9378
-0.320984 -0.404909 3.10169
-0.497748 -1.02767 3.05384
-0.412384 -1.05911 2.95483
-0.213391 -0.286868 3.12987
-0.203404 -0.596662 3.00486
-0.39105 -0.408099 3.17056
-0.344651 -0.992405 2.93749
-0.26035 -1.05284 2.91079
-0.295898 -0.574501 3.00882
-0.372082 -1.16133 2.99604
-0.361447 -0.300898 3.26705
-0.259288 -0.925291 2.91531
-0.348203 -0.899718 2.93958
-0.341135 -0.329262 3.13509
-0.338506 -0.537265 3.07939
-0.294107 -1.13885 2.92986
-0.135088 -0.443936 3.12447
-0.137457 -0.555613 3.0545
-0.191342 -0.365654 3.11674
-0.422863 -0.956289 2.98232
-0.360565 -0.489648 3.13804
-0.394621 -0.69072 2.99161
-0.549961 -1.0374 3.13333
-0.237218 -0.812519 2.92226
-0.165233 -0.239153 3.21973
-0.13374 -0.924811 2.98426
-0.372204 -0.739341 2.92855
-0.268047 -0.216148 3.19136
-0.512526 -0.890495 3.10294
-0.13359 -0.662539 3.00937
-0.153142 -0.165956 3.29803
-0.186361 -0.482327 3.07091
-0.080033 -0.612131 3.09032
-0.0876401 -1.07831 3.03228
-0.243375 -0.42883 3.0962
0.00751393 -0.94128 3.14446
-0.0671297 -1.1929 3.17175
-0.209962 -0.712104 2.94363
-0.159984 -0.806172 2.97551
-0.212718 -0.88071 2.98177
-0.202863 -0.104298 3.25518
-0.0846064 -0.782617 3.09677
-0.0594672 -0.929225 3.06016
-0.139248 -0.752477 3.0428
-0.0288933 -0.859123 3.11059
-0.0956324 -0.522917 3.13256
-0.219901 -1.06251 2.99557
-0.213835 -0.283411 3.13882
-0.0837685 -0.69724 3.08381
-0.118765 -0.857055 3.04709
0.00161376 -1.08456 3.29286
-0.0264816 -1.16309 3.23199
-0.194068 -0.324439 3.21928
-0.0607213 -1.00091 2.97403
-0.236034 -0.96863 2.99485
-0.140167 -0.232727 3.3024
-0.050806 -1.08554 3.21367
-0.0653832 -0.778373 3.17863
-0.0350324 -1.03129 3.39453
-0.205606 -1.20511 3.14556
-0.349695 -1.00448 2.9588
-0.0505753 -0.877291 3.22007
-0.0891792 -0.732835 3.24391
-0.0869115 -1.08884 3.12741
-0.0268168 -1.01135 3.05252
-0.0580581 -1.00618 3.30343
-0.101363 -0.962997 3.38034
-0.0993136 -0.68303 3.17809
