ply
    format ascii 1.0           
    element vertex 78
    property double x           
    property double y           
    property double z           
    end_header
-0.333599 -1.07727 2.72901
0.0589947 -0.325627 3.12051
-0.106609 -1.28623 2.6098
-0.193636 -1.05737 2.71522
0.00435484 -0.440946 2.9927
-0.129014 -0.810313 2.83617
-0.32708 -1.17507 2.67429
-0.0758921 -0.499147 2.98871
-0.114388 -0.645678 2.89802
-0.255798 -0.930113 2.80892
-0.0727057 -0.412363 3.04757
-0.220561 -0.959336 2.72433
-0.209909 -0.680135 2.94088
-0.0366569 -0.365732 3.11012
-0.178309 -1.22933 2.65633
0.101531 -1.23315 2.68859
-0.0963726 -0.571737 2.95116
-0.180612 -0.606532 2.96578
-0.396606 -1.13655 2.71231
-0.169385 -0.891117 2.83423
-0.0211865 -0.623146 2.92821
-0.129718 -0.731534 2.87238
-0.075745 -1.19927 2.66716
-0.191548 -1.33227 2.64786
-0.434386 -1.21925 2.75294
-0.249763 -0.856999 2.86882
-0.251285 -0.803407 2.93779
-0.168765 -0.532299 3.01091
-0.0478628 -0.975816 2.83725
-0.24297 -1.17122 2.70335
-0.328385 -1.3461 2.72924
0.0118284 -1.18692 2.71045
0.146988 -1.17791 2.76745
0.0651979 -0.570138 3.02572
-0.00252542 -1.27549 2.65337
-0.274032 -1.02871 2.77498
0.0786759 -0.477087 3.03556
-0.138757 -0.994405 2.75833
-0.0522168 -0.777014 2.89121
0.0776338 -1.33137 2.67595
0.0241744 -1.03741 2.86547
-0.152012 -1.14846 2.71922
-0.328362 -0.979111 2.83111
-0.317573 -0.903417 2.88021
-0.0643408 -1.36782 2.65829
-0.276761 -1.42945 2.75049
-0.354536 -1.25968 2.73326
0.0488971 -0.741226 2.98027
-0.265925 -1.25218 2.68492
0.186775 -1.27118 2.73632
0.0216915 -1.15949 2.79781
-0.0991538 -1.07684 2.75866
-0.0746444 -0.873733 2.83921
0.0154172 -1.39758 2.71904
-0.0523451 -0.712479 2.95642
0.0324508 -0.649312 3.00345
-0.154703 -1.39115 2.70804
0.0355167 -0.4237 3.07923
-0.0664437 -1.10836 2.84375
0.182736 -1.25102 2.85352
0.10065 -1.38967 2.75712
-0.00630126 -0.846485 2.87991
0.0453415 -1.06952 2.94642
0.061738 -0.643531 3.08892
-0.057451 -0.901873 2.91088
-0.00997727 -0.976047 2.93281
-0.0232138 -0.580222 3.01168
-0.0107703 -0.895741 3.04888
-0.00413071 -0.832325 2.96986
0.00320527 -0.790563 3.05977
-0.00247143 -1.12191 2.90163
0.156156 -1.33472 2.80386
0.055879 -0.3156 3.11077
0.0188509 -0.715663 3.10343
0.0535613 -0.540075 3.14186
0.0652698 -0.337733 3.20839
0.100601 -0.452559 3.15529
-0.0818291 -0.850313 3.13244
