ply
    format ascii 1.0           
    element vertex 76
    property double x           
    property double y           
    property double z           
    end_header
-0.718638 -1.02903 4.45577
-0.723471 -1.1903 4.47549
-0.537567 -1.2752 4.20017
-0.653586 -1.31439 4.2645
-0.663316 -1.12501 4.38025
-0.718209 -1.52618 4.39026
-0.754621 -1.37841 4.39573
-0.745222 -1.76253 4.10242
-0.846151 -1.84116 4.14279
-0.551711 -1.48546 4.13276
-0.610182 -0.618386 4.68777
-0.631262 -0.857987 4.45009
-0.768557 -1.62301 4.472
-0.697412 -1.64447 4.14044
-0.727214 -1.43441 4.26294
-0.650039 -0.799135 4.66609
-0.85604 -1.79437 4.26577
-0.608778 -0.972008 4.38125
-0.68935 -1.6073 4.27678
-0.527856 -0.483985 4.68132
-0.768602 -1.71249 4.2394
-0.685602 -1.26365 4.37196
-0.712232 -1.54894 4.5601
-0.710612 -1.74263 4.47609
-0.640908 -1.84785 4.05454
-0.592473 -1.2165 4.28649
-0.673561 -0.948738 4.53053
-0.504388 -0.632292 4.58891
-0.686222 -1.04225 4.60874
-0.689489 -1.30764 4.52039
-0.683375 -1.64912 4.39556
-0.480895 -1.87997 4.00275
-0.602562 -1.71648 4.07663
-0.658553 -0.847333 4.56758
-0.42807 -1.66556 4.05508
-0.614878 -0.771651 4.51858
-0.566776 -1.08071 4.33146
-0.644404 -1.92519 4.18446
-0.411341 -1.77471 3.98555
-0.532933 -1.78668 4.02897
-0.563154 -1.401 4.21595
-0.454046 -1.55439 4.10836
-0.343684 -1.48756 4.11975
-0.60679 -1.57431 4.1828
-0.481231 -1.12986 4.31169
-0.320044 -1.40658 4.19707
-0.474761 -1.01228 4.36356
-0.432751 -1.34948 4.22857
-0.495516 -0.902679 4.41852
-0.516473 -0.789841 4.46689
-0.663727 -0.919251 4.68668
-0.44682 -1.46186 4.18628
-0.332306 -1.60695 4.09601
-0.574162 -0.452435 4.77983
-0.371176 -1.23798 4.38703
-0.382808 -0.970545 4.4386
-0.633757 -0.534847 4.77501
-0.219148 -1.68886 4.18481
-0.448882 -0.530318 4.75382
-0.526009 -0.480466 4.68647
-0.257168 -1.58111 4.15294
-0.417257 -0.756434 4.55563
-0.441372 -1.26159 4.3002
-0.412505 -1.1223 4.39705
-0.346738 -1.71855 4.13221
-0.390677 -1.07036 4.48681
-0.468274 -0.437499 4.81353
-0.342399 -1.84054 4.09367
-0.270379 -1.45452 4.30548
-0.36379 -1.18724 4.51459
-0.242551 -1.56992 4.27665
-0.411192 -0.649693 4.67057
-0.410799 -0.860607 4.49692
-0.413157 -1.41661 4.49469
-0.372321 -0.823683 4.66058
-0.377593 -0.92509 4.6121
