ply
    format ascii 1.0           
    element vertex 86
    property double x           
    property double y           
    property double z           
    end_header
-0.245697 -0.527621 1.18942
-0.100301 -0.494456 1.17763
-0.0609559 -0.45539 1.16628
-0.120315 -0.140707 1.37121
-0.161929 -0.247535 1.32712
-0.063851 -0.642117 1.17012
-0.106185 -0.319695 1.25709
-0.131953 -0.249738 1.28665
-0.103045 -0.100696 1.39948
-0.306458 -0.444687 1.25308
-0.0928419 -0.184339 1.3112
-0.087618 -0.27165 1.2662
-0.269194 -0.460621 1.22505
-0.190546 -0.396456 1.24892
-0.144097 -0.418444 1.22992
-0.15134 -0.194746 1.37335
-0.278838 -0.506061 1.22536
-0.195881 -0.531861 1.17289
-0.229653 -0.479961 1.2014
-0.0993877 -0.397228 1.22757
-0.200884 -0.445365 1.22747
-0.152219 -0.345989 1.25833
-0.0862566 -0.350178 1.22112
-0.0772474 -0.565949 1.19234
-0.167245 -0.297098 1.32429
-0.016457 -0.401297 1.22033
-0.170843 -0.577028 1.15997
-0.0687672 -0.119934 1.36027
-0.217395 -0.579579 1.1906
-0.0829488 -0.0660188 1.42644
-0.309936 -0.492643 1.26764
-0.138293 -0.129242 1.42581
-0.0666205 -0.438641 1.21864
-0.191031 -0.624425 1.1779
-0.176593 -0.489207 1.19833
-0.0524859 -0.518255 1.18454
-0.108591 -0.467781 1.22226
-0.0168284 -0.562464 1.18144
0.0571531 -0.518839 1.233
-0.12381 -0.216681 1.33393
-0.214075 -0.407421 1.29356
-0.277129 -0.417315 1.28571
-0.0804489 -0.232442 1.30061
-0.0404247 -0.261472 1.28431
-0.0397185 -0.20975 1.32731
-0.239986 -0.443066 1.26451
-0.093889 -0.615276 1.20834
-0.170494 -0.384111 1.29378
-0.151771 -0.542774 1.19329
-0.0233501 -0.179826 1.35914
0.00567952 -0.447059 1.23008
-0.0373837 -0.631192 1.21475
-0.143744 -0.639474 1.20129
0.00230172 -0.520049 1.21235
-0.05213 -0.305806 1.27661
-0.0564816 -0.384279 1.23925
-0.13278 -0.509587 1.22074
-0.0096556 -0.297983 1.30295
-0.0372839 -0.0760726 1.45506
-0.00859512 -0.345849 1.29821
-0.0729693 -0.0457025 1.47074
-0.0340331 -0.147541 1.39064
-0.0504852 -0.340861 1.25333
-0.115151 -0.0739409 1.48048
-0.138356 -0.59137 1.19479
0.0200893 -0.415341 1.26421
0.0332625 -0.491354 1.27277
-0.0287679 -0.476515 1.20245
-0.013846 -0.375223 1.26198
0.0180064 -0.685784 1.28548
-0.0135131 -0.238887 1.37808
0.0332026 -0.563553 1.23198
0.0681881 -0.583026 1.29514
-0.0293922 -0.126297 1.452
0.00446543 -0.644933 1.25126
0.028305 -0.60074 1.26588
-0.0268177 -0.260806 1.33831
-0.00413892 -0.595668 1.22262
-0.0525353 -0.105513 1.40661
-0.015363 -0.197414 1.40916
0.070513 -0.527289 1.28405
0.0252776 -0.642142 1.30492
0.00541219 -0.481578 1.34554
-0.0268444 -0.147424 1.39047
-0.0707509 -0.0418203 1.46774
-0.0149917 -0.391334 1.32234
