ply
    format ascii 1.0           
    element vertex 91
    property double x           
    property double y           
    property double z           
    end_header
-0.303842 -0.0214366 4.06039
-0.0445117 -0.803601 3.62881
-0.190756 -0.280795 3.95763
0.0584755 -1.48265 3.68507
-0.178821 0.26263 4.11241
-0.453415 -0.626735 4.01546
-0.247189 0.462251 4.35078
-0.151685 -0.0853515 3.96574
-0.146702 -0.967722 3.71102
-0.835923 -0.877852 4.14202
-0.487493 -1.54234 3.99033
-0.621565 -1.17737 3.8815
-0.443303 -1.69811 4.14924
-0.355722 -1.32258 3.7265
-0.010244 -1.20808 3.76263
-0.294336 -0.686807 3.91741
-0.715886 -0.925327 4.00807
-0.583169 -0.986921 3.90212
-0.14195 -0.406121 3.82449
-0.341 -0.40728 4.00889
-0.151629 -0.581834 3.86739
-0.457342 -1.17071 3.78799
-0.185581 0.635704 4.42725
-0.380552 -1.50464 3.82186
-0.726347 -0.74107 4.21912
-0.107624 0.797902 4.51141
-0.72417 -1.11077 4.02445
-0.577229 -1.41512 4.1634
-0.478606 -0.828566 3.96523
0.124706 -0.550869 3.76818
-0.364777 -0.192617 4.24683
-0.0238286 -0.720448 3.80616
-0.496766 -1.34711 3.86581
-0.0891791 0.553175 4.25829
-0.136596 -0.861376 3.88454
-0.121972 0.0847002 4.06781
0.0226918 -0.00767659 3.98552
-0.392897 -0.986155 3.84922
-0.81545 -1.05376 4.19823
0.0385322 -1.01813 3.70179
-0.279296 -1.17266 3.82458
-0.581788 -0.838808 4.1358
0.453862 -0.922122 3.76049
0.0305201 0.208665 4.13289
0.237366 -0.697021 3.78812
0.000621822 -0.505357 3.87113
0.100576 0.35418 4.22095
-0.0164717 -1.39466 3.84756
0.188694 -1.40446 3.80603
0.2503 -0.975684 3.73963
-0.186251 -1.52286 3.86844
0.157691 -0.435348 3.90739
0.00010335 -0.188283 3.98215
0.406867 -1.09343 3.78196
0.0080244 -0.330491 3.89569
0.193677 -0.297274 4.02307
0.0866996 0.49072 4.35119
-0.202275 -1.34226 3.82987
0.164379 -0.119473 4.03818
0.30078 -0.557188 3.89737
0.11071 -0.842743 3.72973
0.401026 -0.821546 3.91052
0.377056 -1.40233 3.89351
0.592444 -1.11215 3.9683
0.189322 0.149258 4.29848
0.18004 -1.15254 3.66885
-0.000848778 0.652022 4.41781
0.140351 0.618142 4.56625
0.287339 -1.24383 3.79264
0.484082 -1.52855 4.00417
0.089106 0.830537 4.57673
0.447463 -1.21758 3.90788
0.558465 -0.916382 3.92023
0.18584 0.322326 4.4009
0.389704 -0.765994 4.16614
0.518746 -1.34528 4.04265
0.322939 -1.64774 4.00452
0.259618 -0.463836 4.08692
0.481082 -1.38685 4.42857
0.58236 -0.983632 4.07425
0.294887 -0.621198 4.24499
0.282413 -0.648991 4.0531
0.306741 -1.57871 3.80523
-0.521439 -1.17031 3.81092
0.0119263 0.534918 4.75235
0.508877 -1.29402 4.25464
0.42788 -1.56928 4.3643
0.178041 -0.460242 4.3076
0.45614 -1.47991 4.19053
0.119699 0.709558 4.73241
0.159043 0.0249911 4.13465
