ply
    format ascii 1.0           
    element vertex 75
    property double x           
    property double y           
    property double z           
    end_header
-0.251347 -0.930463 2.66342
-0.103706 -0.590835 2.69872
-0.108121 -0.452895 2.78878
-0.01459 -0.435882 2.70959
-0.073543 -0.350486 2.78154
-0.0811211 -0.479039 2.73684
-0.137395 -0.753066 2.66422
-0.172479 -0.838109 2.53223
-0.126464 -0.701653 2.66261
-0.125186 -0.647081 2.68183
-0.184 -0.900263 2.51124
-0.0798006 -0.539778 2.72661
-0.113897 -0.853722 2.50347
-0.068711 -0.617507 2.65049
-0.145517 -0.993184 2.51527
-0.0800071 -0.758412 2.63266
-0.108155 -0.397015 2.82546
-0.131396 -0.935488 2.48881
-0.193109 -0.841245 2.66463
-0.044527 -0.558629 2.66873
-0.243006 -0.901728 2.72514
-0.240574 -0.818434 2.70081
-0.0209137 -0.506091 2.71135
-0.00847886 -0.372515 2.75382
-0.145743 -0.803816 2.65867
-0.0104086 -0.71493 2.63476
-0.109134 -0.814561 2.62414
0.0429188 -0.483856 2.71578
-0.190975 -0.969176 2.56243
-0.0562796 -0.825386 2.58008
-0.0574742 -0.423151 2.76509
-0.0629941 -0.68275 2.65634
-0.0148053 -0.795181 2.60852
-0.00147917 -0.627613 2.67352
0.0642086 -0.562058 2.73621
0.00801277 -0.34429 2.81454
-0.078239 -0.910655 2.51573
0.00754123 -0.864439 2.58987
-0.120123 -0.841658 2.56421
0.043191 -0.421717 2.75629
0.0384864 -0.813067 2.64165
-0.0471245 -0.887723 2.56892
0.0521565 -1.01059 2.69781
0.0491253 -0.625965 2.71969
0.00416024 -0.566975 2.7098
0.0358756 -0.730534 2.68468
0.0238455 -0.917295 2.61902
0.047088 -0.872459 2.63891
-0.0460358 -0.990371 2.58917
-0.0479718 -1.05799 2.5843
-0.0791785 -0.97628 2.53503
0.014395 -0.980528 2.63822
-0.01563 -1.06461 2.63825
0.0707919 -0.967911 2.74393
0.0748189 -0.513247 2.77886
-0.0381369 -0.934632 2.61809
0.0454354 -0.479635 2.72129
0.0542705 -0.687759 2.72765
0.0392999 -0.948829 2.68537
0.0440569 -0.906327 2.7275
0.0525618 -0.636343 2.79216
0.0383919 -0.823209 2.75925
0.0547341 -0.573352 2.79858
-0.105941 -1.03466 2.54456
0.0513087 -0.789198 2.70336
0.047642 -0.465562 2.81207
0.0166054 -0.783222 2.79583
0.0189525 -0.836442 2.6941
0.0298588 -0.74078 2.75297
0.0172366 -0.719719 2.81032
1.45517 -1.02034 2.2202
0.224687 -0.453881 2.74981
0.140995 -0.543962 2.80268
1.44787 -0.998694 2.26896
1.35934 -1.02497 2.27612
