ply
    format ascii 1.0           
    element vertex 68
    property double x           
    property double y           
    property double z           
    end_header
-0.475105 -1.00254 4.74372
-0.450316 -1.11858 4.6204
-0.472712 -0.868518 4.81636
-0.337151 -1.64927 4.26196
-0.432052 -1.65996 4.31989
-0.435861 -1.19371 4.55393
-0.308858 -1.1213 4.26853
-0.389792 -1.40521 4.30952
-0.42764 -0.916411 4.71552
-0.242341 -1.64459 4.20868
-0.343674 -1.20726 4.23605
-0.229845 -1.17708 4.22458
-0.427756 -1.5918 4.41727
-0.336271 -1.42067 4.21511
-0.252877 -1.75116 4.20394
-0.337362 -1.32504 4.26427
-0.295026 -1.78431 4.2953
-0.399619 -0.837806 4.77722
-0.266037 -1.27547 4.20503
-0.486977 -1.67237 4.41051
-0.342028 -1.50796 4.30055
-0.324888 -0.876539 4.71997
-0.364749 -1.12302 4.55966
-0.417197 -1.75625 4.38721
-0.358994 -0.977621 4.65852
-0.0741004 -1.69044 4.19879
0.099116 -1.59988 4.21829
-0.153582 -1.75434 4.18605
0.0532737 -1.44411 4.36128
-0.192704 -1.5737 4.25949
-0.236835 -1.37504 4.23514
-0.131596 -1.47303 4.24639
-0.0950942 -1.60008 4.24677
-0.254357 -0.999725 4.64703
-0.421629 -1.45788 4.49477
-0.35401 -1.5973 4.3516
-0.375559 -1.04593 4.60208
-0.249088 -1.48491 4.23615
-0.279712 -1.12419 4.51828
0.0716702 -1.50976 4.24452
0.0959958 -1.70733 4.23992
-0.284257 -1.07668 4.59177
0.0350583 -1.80613 4.29402
0.0216776 -1.67444 4.20913
-0.0155797 -1.34081 4.37568
-0.16191 -1.31292 4.27066
-0.201277 -1.07489 4.56236
-0.0676029 -1.40584 4.35715
-0.0720516 -1.78371 4.23123
-0.156672 -1.43963 4.2119
0.14564 -1.54658 4.29255
-0.161104 -1.40616 4.30781
-0.181047 -1.1542 4.51322
-0.110234 -1.50118 4.28473
-0.238892 -1.14036 4.33026
0.157819 -1.62679 4.28395
-0.265082 -1.74952 4.21399
-0.0607412 -1.27933 4.4533
-0.117095 -1.3103 4.36447
-0.188053 -1.2266 4.31495
-0.0968711 -1.51869 4.74743
-0.159055 -1.24101 4.5668
-0.360346 -0.867797 4.72102
-0.200568 -1.24636 4.47342
-0.312269 -0.881493 4.78305
-0.0210236 -1.34455 4.50674
-0.129099 -1.29855 4.65652
-0.148686 -1.14508 4.61652
