ply
    format ascii 1.0           
    element vertex 72
    property double x           
    property double y           
    property double z           
    end_header
-0.220501 -0.305584 2.66323
-0.122029 -0.333899 2.62658
-0.291989 -0.851252 2.44189
-0.235415 -0.692339 2.46551
-0.129129 -0.171284 2.67958
-0.247238 -0.519503 2.57936
-0.205103 -0.846169 2.40481
-0.187033 -0.215097 2.68566
-0.213385 -0.636603 2.48993
-0.163827 -0.278531 2.6344
-0.270017 -0.672125 2.51473
-0.197781 -0.375012 2.6165
-0.407251 -0.780225 2.45851
-0.245463 -0.80187 2.43947
-0.171801 -0.717749 2.44779
-0.246947 -0.423157 2.58897
-0.195998 -0.554828 2.54189
-0.247699 -0.606157 2.55656
-0.132356 -0.855847 2.41155
-0.0783387 -0.592162 2.50702
-0.140928 -0.652966 2.46848
-0.177718 -0.426771 2.58384
-0.384163 -0.736637 2.48503
-0.340383 -0.804877 2.46053
-0.0454514 -0.758312 2.45914
-0.117499 -0.769092 2.44344
-0.413223 -0.836401 2.50306
-0.277121 -0.625946 2.62009
-0.148801 -0.599374 2.51262
-0.234414 -0.749789 2.48117
-0.0550659 -0.826778 2.43038
-0.162022 -0.499182 2.57304
-0.172363 -0.92381 2.49218
-0.177788 -0.805294 2.44841
-0.244155 -0.931677 2.52529
-0.11824 -0.456278 2.59166
-0.0160721 -0.708384 2.50291
-0.121861 -0.560707 2.55139
-0.0696583 -0.65889 2.49068
-0.0641632 -0.906142 2.43885
-0.103148 -0.715913 2.48827
0.0661795 -0.830374 2.53883
-0.329164 -0.733205 2.51923
-0.114453 -0.41106 2.64788
0.099102 -0.777976 2.62555
-0.294563 -0.777028 2.49249
0.0362161 -0.900188 2.5159
-0.000448921 -0.60756 2.58505
-0.00933637 -0.869604 2.47169
0.044926 -0.661342 2.57461
0.0440123 -0.737763 2.62137
-0.00666149 -0.642307 2.52536
-0.00221306 -0.842374 2.5295
-0.108676 -0.536245 2.61039
-0.00421916 -0.781216 2.52235
0.0474206 -0.773133 2.57424
-0.0136125 -0.92501 2.49376
0.067277 -0.749146 2.6861
-0.00231471 -0.708145 2.58072
-0.129035 -0.169595 2.67748
-0.123416 -0.216412 2.73572
0.0527205 -0.893973 2.58618
0.0698925 -0.877925 2.65999
0.103771 -0.82611 2.68033
0.06356 -0.830034 2.60731
-0.181302 -0.287086 2.64169
-0.119645 -0.365893 2.67631
-0.121633 -0.564539 2.5585
0.047448 -0.658619 2.56653
-0.151345 -0.304343 2.6997
-0.132458 -0.484273 2.64485
0.0432365 -0.903667 2.51302
