ply
    format ascii 1.0           
    element vertex 81
    property double x           
    property double y           
    property double z           
    end_header
-2.08578 -2.96254 8.45641
-1.53332 -0.807807 9.25814
-1.74569 -1.2008 8.9742
-1.8501 -2.77313 8.17973
-1.77787 -1.03527 9.15551
-1.9363 -3.2059 8.14937
-1.94193 -2.64432 8.51931
-1.94713 -2.49923 8.80317
-1.69919 -1.5975 8.83213
-1.91328 -2.4495 8.52511
-1.69325 -2.73984 8.04508
-1.80002 -2.97109 8.18706
-1.75933 -2.12384 8.53082
-1.84027 -2.51238 8.31632
-1.88863 -2.30861 8.87955
-1.85187 -3.4425 8.1127
-2.01233 -2.70802 8.73098
-1.95345 -3.05844 8.30718
-1.92541 -2.86877 8.33994
-1.82033 -1.99937 8.70001
-2.05602 -2.79918 8.55374
-2.02163 -3.3883 8.24735
-1.64393 -1.78441 8.7363
-1.78719 -1.81454 8.84616
-1.55652 -1.20566 8.92081
-2.20495 -3.44521 8.34469
-1.85482 -2.29167 8.63278
-1.71759 -3.26928 8.07974
-1.53689 -1.39053 8.97384
-1.61495 -2.90465 8.08847
-1.49868 -3.07482 8.03618
-1.66275 -1.98471 8.63954
-1.84169 -2.70717 8.36903
-1.49461 -3.27652 8.03089
-1.5486 -0.99865 9.09606
-1.54137 -2.48232 8.32697
-1.66764 -2.64049 8.23209
-1.69612 -1.40967 9.11006
-1.48636 -1.9208 8.63684
-1.4864 -3.4129 8.19158
-1.30074 -3.13014 8.02146
-1.5564 -2.08411 8.54989
-1.60325 -2.24926 8.46272
-1.72906 -1.69098 9.01841
-1.41343 -2.20254 8.51197
-1.80051 -1.28331 9.15991
-1.36272 -2.96778 8.14563
-2.07297 -3.23479 8.41149
-1.09594 -3.03457 8.26256
-1.70161 -2.41774 8.43312
-1.6151 -3.05009 8.2091
-1.64779 -3.43542 8.14962
-2.22554 -3.28571 8.33654
-1.33312 -3.33064 8.11755
-1.34837 -2.02864 8.70352
-1.51874 -2.75721 8.1515
-1.42248 -2.60302 8.44695
-1.527 -1.59278 8.90458
-1.72305 -1.42408 9.09606
-1.51107 -3.27693 8.01339
-1.44282 -2.39377 8.45644
-1.53637 -0.780253 9.27777
-1.85615 -2.29999 8.64991
-1.24737 -2.96222 8.29173
-1.37322 -1.56863 9.01488
-1.52131 -0.964089 9.12953
-1.53873 -1.38446 8.98062
-1.28809 -3.14979 8.03541
-1.18014 -3.25229 8.25019
-1.42979 -1.47675 9.26713
-1.20727 -3.11708 8.1876
-1.37101 -2.50871 8.61118
-1.36899 -1.88926 9.01037
-1.32825 -2.32171 8.64574
-1.41654 -0.906217 9.35309
-1.43265 -1.86618 8.82448
-1.39044 -2.6764 8.6534
-1.47959 -1.15377 9.06822
-1.46347 -2.78295 8.292
-1.44211 -1.08774 9.28439
-1.36216 -2.27322 8.88142
