ply
    format ascii 1.0           
    element vertex 78
    property double x           
    property double y           
    property double z           
    end_header
-1.36462 -1.51672 4.25232
-1.24301 -1.36586 3.95925
-1.29595 -1.39359 4.06351
-1.1324 -0.548856 4.62001
-0.994298 -0.268406 4.62645
-1.27772 -1.24578 4.13996
-1.14098 -0.412966 4.61046
-1.32011 -1.56234 4.14312
-1.27802 -1.21512 4.26745
-1.14891 -0.501957 4.50522
-1.13727 -0.72438 4.40999
-1.28919 -1.32733 4.2648
-1.2067 -1.02262 4.24908
-1.35155 -1.75554 4.11543
-1.33645 -1.64374 4.04992
-1.28873 -1.77663 4.00702
-1.33436 -1.4216 4.30269
-1.19736 -1.13676 4.45593
-1.05604 -0.499553 4.44044
-1.30462 -1.4528 4.16042
-1.26273 -1.5046 4.05012
-1.27597 -1.36706 4.39244
-1.11593 -0.826041 4.34801
-1.43349 -1.79558 4.20027
-1.2282 -1.6712 3.96617
-1.21581 -0.953732 4.35086
-1.22944 -1.12494 4.31761
-1.09737 -0.391635 4.5107
-1.12758 -1.54867 3.90233
-1.18519 -1.45814 3.96184
-1.25553 -1.35706 4.16359
-1.02922 -0.597769 4.45895
-1.13884 -0.937209 4.29522
-1.13034 -1.66437 3.88731
-1.15515 -1.53974 4.02701
-1.19559 -1.31049 4.0578
-1.00937 -1.57829 3.85854
-1.03468 -1.48189 3.94033
-1.13202 -1.08471 4.17746
-1.02044 -1.0488 4.16456
-1.11608 -1.21503 4.08666
-1.35943 -1.66788 4.21318
-1.16936 -1.76574 3.99289
-1.04782 -0.895151 4.25743
-0.864387 -1.5098 3.94488
-1.09295 -0.990704 4.22061
-0.955638 -0.946868 4.25297
-1.00976 -1.68705 3.9072
-1.18332 -1.18567 4.17714
-1.12621 -1.36675 3.9756
-1.04031 -1.15848 4.13664
-0.924265 -0.69459 4.44349
-1.02228 -1.2762 4.12185
-1.02659 -0.712685 4.40821
-1.13425 -0.407476 4.56702
-0.907637 -0.641799 4.58336
-1.00684 -0.363252 4.54556
-0.96497 -1.22109 4.20091
-0.905682 -1.64306 3.96004
-0.995837 -0.26008 4.63726
-0.936243 -1.56306 3.92164
-0.916488 -0.872937 4.43553
-0.983024 -0.86014 4.33884
-0.945395 -1.11703 4.22099
-1.06515 -1.73497 3.9712
-0.927865 -0.429294 4.59527
-0.983226 -0.464693 4.48252
-0.961992 -1.31755 4.23472
-0.918684 -1.08684 4.35302
-1.07231 -1.38941 4.05958
-1.04551 -0.495841 4.39914
-0.833418 -1.5864 4.02184
-0.906763 -0.322213 4.63589
-0.933017 -0.536499 4.62833
-0.972741 -0.553549 4.53054
-0.924551 -0.97041 4.34595
-0.989664 -0.802235 4.49985
-1.00122 -1.38177 4.16981
