ply
    format ascii 1.0           
    element vertex 78
    property double x           
    property double y           
    property double z           
    end_header
0.00323025 -0.142756 1.74032
-0.128726 -0.475757 1.52846
-0.2575 -0.555535 1.4476
0.0358049 -0.63697 1.52332
-0.0596473 -0.42301 1.55075
-0.0978838 -0.517781 1.48384
-0.215286 -0.593001 1.4358
-0.168116 -0.508839 1.54214
-0.165977 -0.463518 1.56657
-0.050967 -0.276087 1.62709
-0.151504 -0.549826 1.47839
-0.0459339 -0.516327 1.46595
-0.296874 -0.569528 1.49984
-0.0374651 -0.380574 1.56563
-0.0745536 -0.557201 1.44832
-0.107963 -0.438763 1.56034
-0.161202 -0.587098 1.43726
-0.0586084 -0.469048 1.53575
-0.0106239 -0.44001 1.5406
-0.11952 -0.638439 1.44064
-0.282868 -0.526312 1.48348
-0.265939 -0.606038 1.46438
-0.0103459 -0.555084 1.48432
0.00536286 -0.691411 1.49642
-0.0569176 -0.668057 1.48707
-0.223351 -0.635413 1.45901
-0.045622 -0.715808 1.49789
0.00477982 -0.405164 1.57696
0.00111332 -0.264025 1.63783
-0.170364 -0.631778 1.45286
-0.200804 -0.547803 1.4578
0.0261264 -0.191103 1.70195
-0.119608 -0.595274 1.46252
0.0433562 -0.235706 1.74585
-0.0468552 -0.598899 1.48515
-0.0990264 -0.696334 1.48484
-0.0358878 -0.239308 1.66775
0.0478523 -0.625648 1.56697
0.0844658 -0.662885 1.56425
-0.192819 -0.667834 1.47257
0.0449765 -0.289249 1.62433
-0.0221992 -0.642044 1.51412
0.0432509 -0.685192 1.53125
-0.00697298 -0.306593 1.61702
-0.033625 -0.331102 1.58048
0.0248945 -0.463981 1.56798
-0.195019 -0.52434 1.49044
0.0388402 -0.340336 1.62957
-0.0225603 -0.182046 1.72276
-0.00899459 -0.490035 1.53261
-0.0958061 -0.644295 1.47932
0.0333364 -0.726487 1.55427
0.0875712 -0.710661 1.54168
-0.143859 -0.676511 1.45225
0.0070225 -0.361817 1.59919
0.0132059 -0.536608 1.61891
-0.0138929 -0.527414 1.57308
0.123201 -0.697077 1.58212
0.0256159 -0.410549 1.67555
-0.00954452 -0.577681 1.58508
0.0491746 -0.273876 1.67769
0.0940531 -0.670175 1.61779
0.0599618 -0.632419 1.60805
0.0175464 -0.449843 1.61398
0.0124768 -0.407782 1.62487
-0.0219301 -0.579363 1.53695
0.0222326 -0.354552 1.70206
-0.0209041 -0.571041 1.63935
-0.0134052 -0.725308 1.5355
0.105903 -0.745933 1.57999
-0.000248971 -0.494487 1.64716
0.0189442 -0.189371 1.75166
-0.142936 -0.67199 1.45394
0.00683126 -0.492306 1.59859
-0.042668 -0.529507 1.51846
-0.0160222 -0.445931 1.6808
-0.00400405 -0.694742 1.50337
0.0772867 -0.720503 1.63026
