ply
    format ascii 1.0           
    element vertex 73
    property double x           
    property double y           
    property double z           
    end_header
-0.269235 -0.641756 2.75953
-0.0999464 -0.590652 2.75772
-0.0291547 -0.187348 3.03082
0.140791 0.534681 3.31561
0.0507995 -0.744087 2.7701
0.167869 0.0262542 3.09012
0.232148 -0.301123 2.82192
-0.417602 -0.538761 2.77857
-0.241987 -0.480576 2.82372
-0.149184 -0.315725 3.07407
0.0774195 -0.325503 2.89019
0.324296 -0.0107652 3.05495
-0.0773616 -0.453767 2.87251
0.1573 -0.452139 2.78
0.546566 -0.632271 3.01747
0.446187 0.529182 3.2938
-0.507908 -0.448745 2.89536
0.187501 -0.131365 3.05318
0.22026 0.18278 3.12736
0.0228687 -0.0528271 3.1211
-0.422668 -0.706405 2.83778
0.0558778 0.265013 3.20416
-0.14655 -0.159155 3.16034
0.267568 -0.56325 2.90169
0.267784 -0.793316 2.9221
0.0341141 -0.595587 2.83823
0.449915 0.362348 3.32524
0.852665 -0.758547 3.19191
0.474595 -0.83692 2.95164
0.360357 -0.405498 2.88585
0.364406 0.122553 3.16295
0.323521 -0.936653 2.95937
-0.109504 -0.741203 2.81216
-0.16685 -0.876071 2.89545
0.146416 -0.912264 2.92569
-0.282409 -0.782674 2.84763
0.718037 -0.678173 3.14107
0.45002 -0.0644561 3.14056
0.290652 0.454048 3.28575
-0.233975 -0.403901 2.95291
0.362942 -0.681439 3.00626
0.59717 -0.780666 3.04467
0.593237 -0.575626 3.1418
0.347116 -0.176077 3.03805
0.208561 0.348259 3.17529
0.357133 0.270226 3.22898
0.135015 -0.73547 2.89325
0.592684 -0.913248 3.12446
0.832328 -0.925604 3.19
0.359189 0.869185 3.5348
0.745516 -0.833643 3.06906
0.358692 -0.284963 3.17084
0.463074 -0.290433 3.31575
0.406449 -0.440551 3.21082
0.653578 -0.592555 3.28341
0.00103171 -0.869166 2.81854
0.404901 0.131177 3.31924
0.462655 0.597025 3.46465
0.453206 0.151539 3.48866
0.355395 -0.468099 3.05733
0.266173 -0.324855 2.99716
0.442266 0.757085 3.68235
0.433949 -0.940032 3.077
0.355676 0.894166 3.69763
0.404687 -0.142623 3.41596
0.772162 -0.687581 3.31084
0.320891 0.022611 3.52969
0.394306 -0.412943 3.38914
0.396071 -0.152093 3.25091
0.436283 -0.0170113 3.28641
0.747316 -0.845549 3.35568
0.405256 0.272489 3.41745
0.412849 0.339327 3.56652
