ply
    format ascii 1.0           
    element vertex 78
    property double x           
    property double y           
    property double z           
    end_header
-0.41908 -0.502836 2.25222
-0.440246 -0.628022 2.19472
-0.442917 -0.110636 2.44725
-0.344692 -0.159432 2.35234
-0.44381 -0.826462 2.08499
-0.441056 -0.414674 2.29342
-0.462474 -0.759187 2.06467
-0.407106 -0.53493 2.1664
-0.440328 -0.329225 2.3418
-0.356219 -0.630922 2.05697
-0.438441 -0.174669 2.38063
-0.421363 -0.860444 2.1671
-0.417407 -0.683518 2.1342
-0.405322 -0.687788 2.0617
-0.432727 -0.272358 2.32762
-0.427403 -0.718342 2.18158
-0.414508 -0.447577 2.23428
-0.423577 -0.576658 2.20671
-0.400928 -0.605325 2.16425
-0.407045 -0.487105 2.19638
-0.432333 -0.448555 2.34504
-0.361834 -0.0687583 2.398
-0.362977 -0.715278 2.03217
-0.425683 -0.76553 2.1564
-0.415975 -0.310451 2.29733
-0.407536 -0.344151 2.25859
-0.397092 -0.636969 2.1115
-0.388458 -0.662439 2.17619
-0.466419 -0.807273 2.20042
-0.448484 -0.397497 2.34
-0.416217 -0.363022 2.3157
-0.379909 -0.227581 2.31562
-0.413957 -0.393839 2.23621
-0.433115 -0.0598946 2.46498
-0.425658 -0.228971 2.36047
-0.332589 -0.763008 2.04146
-0.41025 -0.460515 2.28786
-0.325904 -0.432693 2.22674
-0.299553 -0.529757 2.16546
-0.347889 -0.567277 2.15408
-0.346524 -0.815292 2.04501
-0.250362 -0.689374 2.05169
-0.394113 -0.795532 2.07256
-0.34662 -0.0220561 2.43066
-0.305994 -0.347919 2.28405
-0.232939 -0.73781 2.03266
-0.424011 -0.724377 2.08208
-0.398513 -0.172951 2.33915
-0.340593 -0.284716 2.33414
-0.296825 -0.730342 2.05802
-0.35429 -0.483385 2.22105
-0.406134 -0.101162 2.39978
-0.356602 -0.362501 2.25103
-0.326684 -0.229542 2.34112
-0.193369 -0.677356 2.04094
-0.283447 -0.579896 2.13115
-0.32972 -0.0810098 2.44322
-0.246585 -0.795543 2.02635
-0.333272 -0.686438 2.07547
-0.363055 -0.322534 2.29094
-0.301903 -0.637067 2.09747
-0.418247 -0.0473556 2.41412
-0.353857 -0.606137 2.11791
-0.322019 -0.403099 2.30359
-0.153203 -0.697702 2.08319
-0.431389 -0.277147 2.32796
-0.18952 -0.634516 2.08962
-0.205918 -0.798537 2.07335
-0.282888 -0.501301 2.22597
-0.25883 -0.568821 2.19248
-0.236807 -0.853703 2.05472
-0.166411 -0.75537 2.08485
-0.278142 -0.447123 2.30291
-0.298194 -0.459979 2.25712
-0.26467 -0.630685 2.20381
-0.332572 -0.2734 2.39524
-0.204053 -0.822612 2.12682
-0.308843 -0.352351 2.34168
