ply
    format ascii 1.0           
    element vertex 79
    property double x           
    property double y           
    property double z           
    end_header
0.317832 1.31878 8.09529
0.749529 1.70804 8.40762
0.443018 1.92398 8.50293
0.312225 -2.24524 7.06759
0.621891 1.15764 7.98181
0.0332605 -2.01726 7.15683
-0.766069 -1.63494 7.09126
0.328613 0.953516 7.94697
-0.0211802 -1.342 7.22537
0.219563 0.338407 7.68238
-0.534486 -1.40556 7.16053
0.178982 -0.323049 7.54642
-0.0244756 0.864529 7.98013
-0.104615 -0.968903 7.17339
-0.345684 -0.19254 7.8108
-0.159651 0.256658 7.77363
-0.489295 -1.80179 7.03486
0.0141478 -0.622109 7.56479
0.168239 0.00242637 7.62747
0.259492 0.65221 7.85597
-1.02021 -1.55658 7.32756
-0.0504036 0.536993 7.83093
0.784679 0.722217 8.23002
-0.962303 -1.91998 7.25174
0.400519 -1.89017 7.23207
0.685929 -1.81014 7.42345
-0.285517 -0.798741 7.42287
-0.595289 -2.40874 7.35754
-0.338723 -1.17774 7.34229
0.568408 -0.422416 7.83251
1.00631 -1.97447 7.44319
0.651175 -2.16613 7.28879
1.12508 -1.72068 7.72023
-0.279146 -0.466419 7.5815
0.418953 -0.926677 7.73281
-0.658918 -2.07974 7.26019
-0.219794 -1.77106 7.22714
0.146652 -1.06594 7.39365
-0.0342167 -2.40165 7.18051
0.284361 -1.37088 7.4662
0.542505 0.436375 7.84553
0.4169 -0.153047 7.77555
-0.962547 -1.35698 7.53712
0.649121 -1.13452 7.91001
0.906527 -2.3679 7.51042
0.0931293 -1.67154 7.34689
0.716211 0.0535609 8.17072
-0.0741446 -0.0477869 7.81171
0.348299 -0.551132 7.65011
-0.318642 -2.09266 7.21669
0.676649 -1.64684 7.72249
0.388048 -1.70953 7.54684
1.26543 -2.06772 7.69582
-0.430708 -2.69971 7.51976
0.649703 -2.56137 7.60572
-0.579045 -0.62942 7.64368
0.409252 -2.49821 7.30588
0.833889 1.06281 8.22886
0.494816 0.676712 8.08809
0.396558 0.133307 7.94989
0.67122 0.410377 8.17355
0.0457533 -2.57205 7.46105
1.18654 -1.90987 8.09142
0.923676 -2.48051 7.79061
0.296046 -1.41605 7.8628
0.894501 -2.33888 7.46418
0.432655 -0.441547 8.48197
0.711652 0.509909 8.52164
0.689642 1.76986 8.77133
0.739954 1.72738 8.3772
1.0882 -2.22975 7.95718
0.535861 -0.303455 8.13625
0.453023 -0.823003 8.11535
0.805873 1.08922 8.21968
0.79659 0.871793 8.53834
0.539093 -0.0607912 8.44922
0.804892 1.2781 8.67067
0.641917 -1.17124 8.24666
0.563319 0.284026 8.55967
