ply
    format ascii 1.0           
    element vertex 78
    property double x           
    property double y           
    property double z           
    end_header
-0.125555 -0.387148 0.976826
-0.0111225 -0.157279 1.15665
-0.0626045 -0.478459 0.981685
-0.0826686 -0.392604 0.996921
-0.0159478 -0.196286 1.1105
-0.0616132 -0.31227 1.04272
-0.123874 -0.421851 0.962248
-0.0429544 -0.208816 1.09559
-0.0523601 -0.257371 1.06294
-0.10343 -0.34206 1.01313
-0.0436627 -0.178239 1.11304
-0.0824486 -0.35841 0.994844
-0.0891035 -0.25875 1.05887
-0.0396407 -0.163055 1.13723
-0.0848053 -0.452118 0.982713
-0.0130201 -0.474178 1.04017
-0.0492213 -0.232399 1.0813
-0.0782125 -0.236161 1.07104
-0.145791 -0.402023 0.961214
-0.0800355 -0.335177 1.03527
-0.0294326 -0.256101 1.08766
-0.0604104 -0.285063 1.05297
-0.0553852 -0.45011 1.00346
-0.0967103 -0.484648 0.978069
-0.170699 -0.423681 0.96648
-0.104802 -0.316067 1.03138
-0.11159 -0.29532 1.05095
-0.0754326 -0.21099 1.08603
-0.0548227 -0.372055 1.05711
-0.105026 -0.425928 0.985093
-0.149318 -0.474199 0.977981
-0.0371316 -0.451036 1.031
-0.00828123 -0.456179 1.07067
-0.016651 -0.24119 1.13058
-0.0399763 -0.48121 1.01214
-0.112107 -0.374028 1.00029
-0.00583246 -0.2118 1.13567
-0.0686973 -0.374608 1.01874
-0.0463213 -0.305009 1.07177
-0.0267454 -0.504538 1.03248
-0.0453063 -0.396302 1.07769
-0.0803356 -0.425102 1.0053
-0.131768 -0.350967 1.00708
-0.129798 -0.325047 1.02303
-0.0665446 -0.50578 1.00299
-0.146339 -0.504164 0.99305
-0.14913 -0.444057 0.974578
-0.0296804 -0.297238 1.11481
-0.11592 -0.451082 0.975893
-0.000861145 -0.490939 1.06862
-0.0462537 -0.438738 1.05785
-0.0655068 -0.404331 1.02571
-0.053002 -0.336914 1.05299
-0.0572805 -0.518804 1.03424
-0.0510795 -0.281029 1.09049
-0.0294543 -0.26517 1.11859
-0.101956 -0.50365 1.00179
-0.0199901 -0.189016 1.14079
-0.0734502 -0.412973 1.05588
-0.0194391 -0.47842 1.10168
-0.0392313 -0.521225 1.05988
-0.0382493 -0.331624 1.07646
-0.0558163 -0.404412 1.10468
-0.0349138 -0.261497 1.14825
-0.0627077 -0.343877 1.07662
-0.0601305 -0.370518 1.09117
-0.0397528 -0.238047 1.11133
-0.0719919 -0.33893 1.12442
-0.051172 -0.322862 1.10275
-0.0600721 -0.305619 1.12989
-0.0665638 -0.419647 1.08358
-0.0264352 -0.505684 1.08286
-0.0094382 -0.154271 1.1533
-0.0559359 -0.280608 1.14511
-0.0362296 -0.224925 1.16202
-0.0250256 -0.157412 1.18307
-0.0172311 -0.19983 1.17393
-0.101203 -0.314539 1.13624
