ply
    format ascii 1.0           
    element vertex 77
    property double x           
    property double y           
    property double z           
    end_header
0.539355 -1.27673 4.72224
0.230412 -0.222967 5.18444
-0.15009 -1.75726 4.32798
0.472217 0.047527 5.303
-0.276078 -1.65334 4.50825
0.331316 -0.461424 5.09636
0.212323 -1.50015 4.53194
0.621496 -0.871154 4.89354
0.260274 -1.92211 4.41275
0.16996 -1.04494 4.74376
0.105588 -1.69812 4.38937
0.390967 0.582507 5.77559
0.357182 -0.858454 4.86017
0.100503 -1.40649 4.78281
0.0143085 -0.889046 4.92817
0.714848 -1.929 4.58148
0.0880673 -0.526639 5.167
0.482838 -0.701666 4.98963
-0.260374 -1.33779 4.95094
0.686166 -1.70679 4.69668
-0.0266822 -1.19361 4.90067
0.527131 -2.07761 4.51458
0.376661 -1.70306 4.52447
-0.0498933 -1.57442 4.59258
0.667003 -1.47024 4.77393
0.51032 -0.20261 5.18484
0.483478 -1.0945 4.87137
0.605228 0.780238 5.92842
0.226128 -0.723935 5.03696
0.641592 0.449908 5.74336
0.271768 -0.0782139 5.3606
-0.259816 -1.60412 4.98327
-0.224095 -1.20263 5.14529
0.557838 -0.449319 5.13022
0.477047 0.237227 5.4789
0.859672 -1.40539 4.92459
0.483478 -1.882 4.51382
-0.0574896 -1.4651 4.93859
0.119316 0.0417739 5.67709
0.0533267 -2.05456 4.58245
0.0562232 -0.40613 5.51042
0.342765 -1.40891 4.71705
0.697201 -0.361619 5.29942
0.861 -1.2509 5.09737
0.663735 0.116584 5.48294
0.697566 -1.06721 5.04183
0.670584 -0.59902 5.18266
0.675246 -0.123998 5.39419
0.464443 -1.5838 4.74961
0.813152 -1.64265 4.87827
0.646544 -1.27806 4.93274
0.685508 -0.850492 5.39873
0.322352 0.786533 5.92507
0.242443 -1.24756 4.90164
0.853759 -1.83818 5.12297
0.776854 -0.320358 5.538
0.731099 0.146195 5.74376
0.697172 -0.607601 5.39183
0.878735 -1.61894 5.06023
0.525786 0.697578 6.19923
0.689138 -1.835 4.89955
0.598252 0.798723 5.91968
0.657263 -2.06992 4.81552
0.661597 -0.882237 5.16315
0.675469 0.390778 5.97382
0.649952 -0.484117 5.58062
0.766209 -1.33965 5.32017
0.561844 -0.715713 5.64919
0.513402 0.277189 5.67844
0.736367 -0.075759 5.63411
0.619759 0.0363947 5.97011
0.428807 -1.11681 5.46495
0.583479 -0.164116 5.86782
0.623824 -2.0136 5.18713
0.492385 -0.93199 5.60322
0.744209 -1.57851 5.28546
0.395996 -2.09391 4.71384
