ply
    format ascii 1.0           
    element vertex 97
    property double x           
    property double y           
    property double z           
    end_header
-0.229983 -0.688464 2.74577
-0.00689774 0.510381 3.18924
0.157248 -0.573342 2.792
0.0137949 -0.349356 2.88268
0.0133596 0.147342 2.97575
-0.120832 -0.290265 2.89719
0.101544 -0.0551992 2.94799
0.10104 0.351545 3.05676
-0.0907061 0.168501 3.09007
-0.314651 -0.492352 2.79839
-0.196437 -0.548684 2.77108
-0.0150854 -0.823517 2.73095
-0.245292 -1.08849 2.9822
0.263793 -0.463558 2.77396
0.21098 -0.760764 2.87426
0.350457 -0.283604 2.92312
0.0215756 0.63751 3.25963
-0.0901395 -0.699469 2.73542
0.133588 -0.283622 2.89705
0.262008 -0.974245 2.8353
-0.207589 -0.967214 2.86042
-0.0248457 -0.134955 2.93349
-0.0777761 -0.955221 2.78152
-0.135436 -0.440104 2.85134
-0.375732 -0.349854 2.93819
-0.0931694 0.349234 3.19014
0.139342 0.0879501 2.96657
0.168739 -0.155005 2.8696
0.223677 -0.397818 2.9032
-0.1036 0.0318928 3.08601
-0.15661 -0.825215 2.7774
0.278017 -0.625538 2.84559
0.114693 -0.490021 2.91096
0.134853 0.564467 3.18404
-0.0537423 -0.566472 2.79965
0.37312 -0.739251 2.87148
0.255453 0.134862 3.03685
0.541673 -0.583088 3.02456
-0.45321 -0.572861 2.88271
-0.314474 -0.859045 2.94085
-0.261458 -0.432661 2.91691
0.16126 -0.895711 2.92164
0.228904 0.29585 3.13851
0.406145 -0.399585 2.97345
0.230748 0.00275809 3.02217
0.0156661 -0.712309 2.82082
0.237516 -0.237472 2.95704
0.25801 0.401197 3.21861
0.408342 -0.608687 2.94541
0.0340027 -0.98179 2.88108
0.309709 -0.920478 2.96414
0.140275 0.218051 3.03783
0.489981 -0.706372 3.02341
0.248786 -0.108255 2.96971
0.335038 -0.196233 3.02767
0.323314 0.0410431 3.11768
0.0531114 -0.84434 2.85022
0.330316 -0.0938516 3.1178
0.406941 -0.929187 3.08604
0.332158 -0.500532 2.88983
0.424025 -0.295713 3.06622
0.436925 -1.0258 3.19159
0.27532 0.245359 3.2992
0.467479 -0.501287 3.10625
0.55455 -0.725039 3.19813
0.395486 -0.807519 2.99015
0.466037 -0.797216 3.11968
0.257806 0.375867 3.36624
0.558872 -0.583182 3.1664
0.0573053 0.753983 3.34971
0.229979 0.506601 3.29792
0.458075 -0.89035 3.23297
0.168398 0.768909 3.45584
0.200331 0.60105 3.46178
0.384077 -0.450694 3.26973
0.353316 -0.358139 3.16625
0.515751 -0.627338 3.27846
0.271303 -1.04099 3.41632
0.31869 -1.1052 3.13886
0.318124 -0.908522 3.47431
0.303109 -0.334539 3.29434
0.389581 -1.0634 2.9995
0.158476 0.000502655 3.33081
0.327028 -0.220546 3.1795
0.04645 0.55743 3.54298
-0.131575 -0.694418 2.73996
0.393294 -0.846101 3.36902
0.364318 -0.983472 3.30851
0.313995 0.143121 3.17907
0.239897 0.12274 3.27198
0.138362 0.676647 3.56652
0.563879 -0.717118 3.18255
0.222347 -0.466131 3.39648
0.466772 -0.753195 3.2567
0.215657 0.239769 3.39071
0.172479 -0.158141 2.87547
0.108326 0.371329 3.45998
