ply
    format ascii 1.0           
    element vertex 86
    property double x           
    property double y           
    property double z           
    end_header
-0.342037 -1.20561 2.63969
-0.190525 -0.497975 2.9377
-0.390981 -1.09834 2.71575
-0.116988 -1.09617 2.56206
-0.446042 -1.08609 2.78291
-0.208618 -0.688485 2.78448
-0.124983 -0.844646 2.64546
-0.0691973 -1.0158 2.5312
-0.135637 -0.710902 2.73041
-0.242101 -0.69667 2.86664
-0.2505 -1.4466 2.73209
-0.19445 -0.983227 2.6774
-0.272391 -0.961307 2.72963
-0.0476171 -1.21218 2.57036
-0.155625 -0.561702 2.81724
-0.282363 -1.048 2.69163
-0.154131 -0.798963 2.7151
-0.221494 -0.860894 2.73606
-0.128422 -0.929937 2.65549
-0.164631 -0.423719 2.98042
-0.32858 -1.11806 2.65639
-0.264771 -1.19669 2.59276
-0.226963 -0.602257 2.94385
-0.0639278 -0.987946 2.62132
-0.237707 -1.11535 2.63036
-0.116998 -0.444406 2.89836
-0.213592 -1.26307 2.55232
0.00931273 -0.907704 2.61013
-0.130812 -0.356805 3.02442
-0.223277 -1.35228 2.58618
-0.0257864 -1.12085 2.55155
-0.238154 -0.782434 2.85694
-0.31232 -1.32612 2.76104
-0.395166 -1.02837 2.82209
-0.187317 -0.630053 2.86549
-0.278688 -1.28382 2.62133
-0.122586 -0.640543 2.78953
0.179537 -1.08426 2.58869
-0.0521986 -0.676045 2.74229
-0.103465 -0.322149 3.09403
-0.122055 -1.05375 2.64218
-0.0527877 -1.302 2.59774
0.0481092 -1.18516 2.52735
-0.285087 -0.991157 2.81947
-0.431204 -1.16804 2.79893
-0.0510761 -0.587296 2.82068
-0.179106 -1.19948 2.6071
0.0664173 -0.978977 2.61311
-0.323561 -1.06216 2.77962
0.0779943 -1.10526 2.57571
-0.0553092 -0.8932 2.66093
-0.146318 -1.1354 2.64563
-0.0207923 -0.529932 2.8711
-0.0412593 -0.480089 2.92568
-0.129822 -1.36313 2.60591
-0.0601696 -0.756459 2.72898
0.0198559 -0.729636 2.75871
-0.00810045 -1.3385 2.51757
-0.0548805 -0.815959 2.68515
0.0352966 -0.810462 2.74627
0.0508286 -1.31442 2.58534
-0.139838 -1.27817 2.59628
0.146113 -1.04648 2.66855
0.00685866 -1.04216 2.57773
0.0934194 -0.919706 2.67022
0.0218408 -0.863128 2.68272
0.0239834 -0.628537 2.89621
0.154336 -1.17077 2.59192
0.247157 -1.18901 2.67647
-0.00995065 -0.440661 3.04083
0.143754 -1.32148 2.62679
-0.0371879 -0.353328 3.04958
0.0992807 -1.23883 2.58668
0.175324 -1.2374 2.64594
0.226949 -1.09597 2.66927
-0.00644116 -0.669334 2.82984
0.0225861 -0.558096 2.95226
0.201293 -1.31018 2.71031
0.191559 -1.39501 2.67927
0.101324 -1.06192 2.863
-0.0754333 -0.412734 2.974
-0.133222 -0.359781 3.02589
-0.0251741 -0.475674 2.93116
0.236377 -1.14168 2.74317
0.0861908 -0.969377 2.83125
0.0862432 -0.973012 2.7406
