ply
    format ascii 1.0           
    element vertex 70
    property double x           
    property double y           
    property double z           
    end_header
-1.29466 -1.44767 15.8939
-2.13018 -5.47624 14.481
-1.11522 0.333117 16.2147
-0.873872 -0.340466 15.9251
-1.34226 -4.62242 14.0362
-1.83663 -4.9146 14.3758
-1.2658 -0.794494 15.9446
-1.68739 -3.88477 15.0895
-1.67495 -5.791 14.1823
-1.44679 -3.33575 15.2428
-1.08654 -2.86998 15.018
0.384252 -5.34412 14.21
-1.99831 -6.24652 14.4836
-1.36156 -4.24499 14.6207
-1.45386 -0.216283 16.3369
-0.850197 -5.11418 14.0545
-1.01593 -5.79897 14.0276
-1.39149 -6.38919 14.1682
-0.97799 -2.35473 15.1966
-1.819 -4.63281 14.9129
-2.36422 -5.92469 14.7387
0.0422873 -3.23192 15.1129
-0.393279 -3.91327 14.6922
-0.35934 -5.50244 13.8191
-0.70388 -1.58207 15.538
-1.41985 -5.28508 14.1506
0.210967 -4.22686 14.5947
-0.517654 0.174998 16.0342
-1.06379 -3.73358 14.8448
-1.11751 -2.07594 15.5741
-0.744009 -4.51549 14.2684
-1.56589 -2.0969 16.0732
-0.472835 -2.74482 15.1842
0.137154 -2.6886 15.3904
-0.343414 -2.20461 15.4271
-1.47006 -2.77105 15.5438
-0.0431017 -1.69409 15.6879
-0.66644 -1.01638 15.8113
-1.58246 -0.956792 16.265
-1.67737 -1.56102 16.3727
-0.158405 -4.70626 14.5593
-0.634311 -6.32674 14.1955
-0.261791 -0.611459 16.164
0.182234 -3.84222 15.0624
-0.685003 -3.29969 15.0557
-0.0246256 -6.00929 14.1694
-0.14748 -1.28885 16.322
-0.280658 -0.109409 16.5269
0.444808 -6.01333 14.6761
0.261532 -2.25399 15.9054
-0.246937 -6.48335 14.7082
0.527591 -4.36451 15.1152
0.0802221 -1.71905 16.8061
0.308371 -4.01311 16.1526
0.201772 -3.40082 15.7683
0.265394 -4.85243 15.362
-0.263953 -6.48569 14.7427
0.370091 -5.79745 15.5063
0.220685 -3.28922 16.4154
-0.2881 -0.661373 16.8376
-0.229975 -1.26915 17.0632
0.302933 -5.41532 14.9423
0.124472 -6.43678 15.3399
0.157962 -2.20886 16.5506
-0.57582 0.424059 16.6447
0.0591302 -2.79647 15.9237
-0.223777 -2.56685 16.9154
-0.533435 -5.33945 16.2213
-0.48848 -0.100037 17.1162
-0.132962 -4.50256 16.3044
