ply
    format ascii 1.0           
    element vertex 67
    property double x           
    property double y           
    property double z           
    end_header
0.0904014 -0.353333 3.09726
-0.12607 -0.904479 2.8321
-0.0903504 -0.633925 2.96551
-0.00177521 -0.506477 3.02017
-0.0470909 -0.939915 2.79798
-0.0812371 -0.524636 3.07195
-0.283553 -0.984862 2.78596
-0.111121 -0.797457 2.91543
-0.0239279 -0.747704 2.9102
-0.344174 -1.02917 2.82525
-0.0323504 -1.07873 2.84791
-0.114333 -0.712709 2.94127
0.00570593 -0.389887 3.11798
-0.279931 -1.07734 2.79164
-0.207765 -0.871759 2.89721
-0.197655 -1.13109 2.81216
-0.179145 -0.75123 2.99785
-0.0735818 -1.16201 2.85689
-0.270065 -0.961829 2.85864
-0.0558951 -0.866286 2.86245
0.027688 -0.633351 3.0047
0.0964638 -0.309359 3.18158
-0.346717 -1.09172 2.84898
-0.206828 -1.01593 2.80882
-0.0468186 -0.58457 3.01691
-0.111406 -0.988382 2.84316
-0.191455 -0.830815 2.96703
-0.186888 -0.95349 2.8813
-0.287825 -1.1562 2.83251
0.0787213 -1.10557 2.88948
-0.126509 -1.0875 2.84767
0.0951708 -1.00969 2.90575
0.181224 -1.03498 2.93881
0.0164584 -0.913543 2.85293
0.00342277 -0.840521 2.92133
0.0711029 -0.47987 3.07332
0.0590576 -0.718336 2.99546
0.0646434 -1.20148 2.95558
-0.000706415 -1.0003 2.86869
-0.0304409 -0.699987 2.98171
-0.00870857 -1.13781 2.90416
0.0646024 -0.867271 2.98742
0.111872 -0.552731 3.10045
0.081877 -0.674818 3.07026
0.130252 -1.09934 2.97273
0.0219931 -0.784632 2.98369
-0.156976 -1.2037 2.91877
0.0612119 -0.559092 3.0392
0.146847 -0.963745 2.94422
0.0368299 -0.938838 2.93081
0.0502181 -1.22176 3.14005
0.040826 -0.818986 3.06401
0.17029 -0.966641 3.02146
0.0721247 -0.478503 3.18652
-0.0185997 -1.21309 2.95404
0.0583892 -1.20402 2.96396
0.0522816 -0.920929 3.05076
-0.0193209 -1.25823 3.10487
0.0556706 -1.14339 3.11704
0.0656981 -1.16596 3.04429
0.0466889 -0.619955 3.10572
0.0783608 -0.57072 3.17691
0.0270997 -0.650938 3.17619
0.020542 -0.401215 3.10936
0.0440411 -1.07452 3.04838
-0.0412688 -0.78368 3.13243
0.021026 -0.714368 3.13437
