ply
    format ascii 1.0           
    element vertex 72
    property double x           
    property double y           
    property double z           
    end_header
-0.292498 0.682427 1.94548
-0.356496 -0.0211114 1.67479
-0.405103 -0.100451 1.72581
-0.363754 -0.132303 1.92736
-0.304988 0.201023 1.85352
-0.283222 0.512682 1.90656
-0.355541 -0.131604 1.66631
-0.279984 0.631323 2.01806
-0.281353 0.319581 1.80742
-0.25206 0.571653 1.83218
-0.331631 -0.203289 1.70334
-0.296671 0.349674 1.87629
-0.259683 0.135135 1.79071
-0.266214 0.401826 1.80816
-0.204653 0.210979 1.74531
-0.251841 0.751906 1.99583
-0.302041 0.132204 1.85924
-0.235759 0.485639 1.83321
-0.324615 -0.242064 1.75917
-0.202034 0.108235 1.72326
-0.395632 -0.0141855 1.75738
-0.369553 0.024104 1.95969
-0.357216 -0.18 1.78175
-0.279654 0.426859 1.88287
-0.250903 0.239685 1.80458
-0.172367 0.535753 1.79984
-0.198306 0.331016 1.78141
-0.257712 0.595745 1.92115
-0.275033 0.0517532 1.79615
-0.250497 0.0459486 1.71789
-0.113236 0.447282 1.80378
0.00766689 -0.122702 1.76163
-0.168636 0.617502 1.84023
-0.255836 -0.238088 1.70862
-0.290774 -0.0803423 1.66328
-0.22961 -0.0293137 1.69795
-0.190339 0.417555 1.81733
-0.116521 0.358108 1.79629
-0.117753 0.217935 1.76598
-0.0695649 0.15282 1.77637
-0.168501 0.0204945 1.6827
-0.0922559 0.520537 1.84007
-0.0848314 -0.112851 1.72933
-0.169617 -0.0723824 1.74766
-0.23342 0.665657 1.87873
-0.0861239 -0.228717 1.74523
-0.179161 -0.154928 1.72012
-0.0903198 0.0340381 1.71072
-0.111403 -0.0345821 1.70551
-0.256159 -0.158644 1.68248
-0.162587 -0.241253 1.71054
-0.116686 0.106328 1.71675
-0.0831045 0.287205 1.80256
-0.0371991 -0.0521345 1.75894
0.0450241 -0.0539506 1.79919
-0.181438 0.721231 1.92698
-0.0137607 0.0159708 1.80267
-0.0704959 0.449047 1.87109
-0.0566909 0.370255 1.86845
-0.0352906 -0.229017 1.81447
-0.0254612 -0.283759 1.8695
-0.0249793 0.118849 1.83775
-0.103406 0.0813661 1.80734
-0.0680429 0.21796 1.83845
-0.0817073 0.510491 1.93392
-0.0342748 0.171345 1.8871
-0.111836 -0.319697 1.86545
-0.0567551 0.256742 1.91661
-0.0284303 -0.181395 1.87158
-0.0222509 -0.218153 1.93956
-0.104921 -0.279455 1.7606
-0.0809886 0.317169 1.93623
