ply
    format ascii 1.0           
    element vertex 73
    property double x           
    property double y           
    property double z           
    end_header
-0.104507 -0.467857 0.760148
-0.103334 -0.474247 0.719116
-0.165199 -0.449752 0.804827
-0.181867 -0.45903 0.845504
-0.217265 -0.511401 0.803477
-0.217272 -0.47612 0.87103
-0.156634 -0.422232 0.839972
-0.22299 -0.286101 0.82273
-0.17853 -0.378553 0.817113
-0.100279 -0.429821 0.73376
-0.170832 -0.5389 0.723414
-0.224162 -0.150178 0.785532
-0.139208 -0.500435 0.750613
-0.14031 -0.443855 0.767609
-0.142904 -0.513163 0.704043
-0.168266 -0.389813 0.869023
-0.204817 -0.22136 0.749813
-0.269815 -0.113534 0.871998
-0.184662 -0.515238 0.761361
-0.192052 -0.341681 0.819724
-0.239632 -0.19147 0.81731
-0.187187 -0.299887 0.787641
-0.2359 -0.151808 0.832705
-0.177154 -0.358458 0.776133
-0.226734 -0.219235 0.790131
-0.269315 -0.558455 0.739611
-0.227576 -0.50476 0.851688
-0.241395 -0.534638 0.818456
-0.27392 -0.54006 0.81422
-0.15433 -0.37076 0.72862
-0.185887 -0.42737 0.871807
-0.22931 -0.110056 0.821899
-0.271439 -0.0984006 0.834352
-0.182916 -0.471285 0.767967
-0.212322 -0.481839 0.83026
-0.141707 -0.404782 0.7347
-0.218599 -0.540284 0.740018
-0.20662 -0.395089 0.881822
-0.257769 -0.462595 0.881925
-0.247338 -0.499855 0.872315
-0.171996 -0.34542 0.74483
-0.223502 -0.251977 0.82331
-0.236487 -0.528569 0.773687
-0.263379 -0.542602 0.774933
-0.214936 -0.268677 0.786264
-0.227843 -0.4298 0.874062
-0.266389 -0.507743 0.839111
-0.315716 -0.544017 0.725718
-0.261699 -0.263944 0.830813
-0.30647 -0.517597 0.804952
-0.290845 -0.47407 0.853164
-0.305343 -0.328905 0.797393
-0.268922 -0.319083 0.81781
-0.301959 -0.22592 0.796569
-0.262853 -0.22022 0.815572
-0.294851 -0.284138 0.803854
-0.313193 -0.515661 0.759971
-0.242522 -0.352364 0.824447
-0.33963 -0.445332 0.720988
-0.321553 -0.32088 0.758898
-0.266472 -0.11185 0.794139
-0.328871 -0.40035 0.772356
-0.327125 -0.293045 0.786431
-0.296979 -0.375356 0.782857
-0.333705 -0.400754 0.727806
-0.357518 -0.411914 0.69248
-0.27312 -0.0980548 0.833949
-0.302103 -0.477114 0.814318
-0.30906 -0.472991 0.752855
-0.244961 -0.398978 0.843668
-0.298069 -0.427842 0.759487
-0.316722 -0.445441 0.671814
-0.324868 -0.355431 0.745108
