ply
    format ascii 1.0           
    element vertex 73
    property double x           
    property double y           
    property double z           
    end_header
-0.671087 -2.63439 18.2849
-2.00113 -6.83561 16.0361
-1.54958 -4.94193 16.5962
-1.34646 -2.96122 18.884
0.239253 -5.52795 16.8814
-1.30303 -4.48422 16.977
-3.16187 -5.91353 16.5205
-1.48168 -6.50183 16.0844
-1.58553 -3.38091 18.3648
-1.07297 -3.27155 17.8652
-0.306296 -0.732256 19.7654
-0.224644 -1.4878 18.9009
-1.05889 -2.45703 18.7091
-2.10019 -5.93749 16.1196
-2.59026 -5.69541 16.4717
-1.99393 -5.53468 16.5085
-1.28142 -4.03683 17.3537
-0.910169 -3.58235 17.4738
-0.911896 -4.90571 16.6227
-0.66666 -4.00193 17.1556
0.601703 -5.1522 17.2544
-1.52181 -5.9451 16.3519
0.256064 -6.16509 17.1336
-1.10903 -2.04316 19.0916
-0.0948516 -7.31188 16.7712
-0.580774 -6.11065 16.9826
-0.610849 -1.21021 19.3731
-0.422528 -3.30448 18.0588
-0.104523 -1.23618 19.4601
-1.04552 -6.3534 16.4543
-0.278375 -3.72018 17.6106
-0.695847 -5.46566 16.8853
-1.01128 -6.92179 16.1811
-0.126794 -6.74128 17.0093
-0.431863 -7.8092 16.8842
-1.30069 -5.52147 16.7149
-0.653471 -4.63722 17.0801
-0.830379 -1.58013 19.0932
-2.55961 -6.27297 16.2014
-0.216477 -5.11502 17.0697
0.467133 -6.75263 17.3437
-1.50115 -7.28674 16.4847
-0.672573 -6.63894 16.7167
0.101525 -4.87849 17.6716
0.779996 -5.82099 17.4102
-0.244729 -4.34498 17.4793
0.0843586 -4.23931 18.035
0.140792 -3.63338 18.1169
0.687764 -5.14036 18.0187
-0.297051 -2.72772 18.7721
0.702613 -6.43239 17.829
-0.577878 -1.94723 18.6058
0.20441 -7.31924 17.3007
-1.99326 -6.44086 16.3454
-0.713435 -7.29808 16.6359
-0.189624 -2.37315 19.7859
0.102329 -1.80167 19.7829
0.73711 -7.23192 17.7174
-0.158035 -3.15223 19.1948
0.788955 -6.92984 18.2779
0.311821 -7.7264 17.8433
-0.11035 -7.86069 17.4091
-2.52901 -6.33311 16.2273
-0.10014 -1.49334 20.3363
-0.281141 -1.49937 18.9379
-1.46795 -7.28389 16.4276
0.120662 -1.00991 20.2638
-0.343541 -0.740587 19.7992
-0.361243 -3.709 19.1936
0.576753 -7.44938 18.3404
-0.049661 -4.35243 18.6429
-0.707308 -6.28765 19.3226
0.479254 -5.61438 18.2349
