ply
    format ascii 1.0           
    element vertex 74
    property double x           
    property double y           
    property double z           
    end_header
-1.65498 -2.09418 5.7338
0.471013 2.81423 7.29289
1.351 -1.32812 6.20634
-0.504245 -2.93691 5.57217
-1.15241 -1.8588 5.68004
-0.278378 -1.02746 5.76517
-0.668476 -2.09972 5.46364
0.156172 0.486109 6.3521
-0.100332 -0.495652 6.04447
0.29929 -0.922415 5.80935
-0.0206159 0.859503 6.67935
1.64108 -0.855106 6.47824
-0.0657917 -2.5581 5.58447
0.202176 2.29662 7.10824
-0.155085 1.80508 7.24344
0.41782 0.0442372 6.15216
0.237683 1.58599 6.93884
-0.615571 -1.63906 5.74835
-0.037144 2.74512 7.39404
-0.256992 2.28373 7.5677
-0.162024 -1.99551 5.73857
0.395426 -2.86273 5.75979
-0.269275 0.150776 6.57654
0.679338 -1.90836 6.38344
-0.602095 -1.1238 6.20749
1.43151 -1.84129 6.50736
1.14131 -2.43232 6.52311
-1.05802 -2.44786 5.57886
-1.4774 -1.76259 6.10953
0.547222 0.934865 6.87559
0.912927 -0.93944 6.30855
0.737084 0.448323 6.53689
0.525383 -1.34952 6.16999
0.29077 -2.29661 5.93425
0.967234 -3.48646 6.5985
-0.0143756 -1.51244 5.9968
0.478769 -0.543294 6.2026
0.652903 -2.46055 6.21836
-0.943633 -2.86436 5.9621
0.822192 -0.147848 6.52797
-1.40736 -2.45053 6.03659
-0.0299541 -3.21372 6.0685
-0.561086 -2.49312 5.75024
1.20809 -0.569121 6.79659
1.07351 0.683461 6.99437
1.85857 -1.4102 6.71303
0.105793 3.17428 7.65967
-0.369079 1.35644 7.57438
-0.524271 0.830159 7.03947
0.557398 3.23926 7.77522
1.48973 -2.84291 6.90449
1.09378 0.118308 7.01755
0.56714 1.6516 7.45049
0.625312 2.27714 8.30221
0.685685 -3.08135 6.25205
1.73392 -0.666395 7.14962
1.97498 -2.62124 7.23604
1.6841 -2.29443 6.82403
1.85973 -1.8812 7.21707
1.23762 -2.99017 6.39933
0.802256 2.81045 8.19577
0.309385 3.77158 8.03695
0.7539 1.37863 7.888
0.845044 3.6626 8.52355
2.0435 -2.22229 7.66658
1.62755 -3.09413 7.45415
1.26833 -3.35582 7.05052
-1.07459 -2.47462 5.64345
0.744244 0.809392 7.94356
0.431671 1.76193 8.2323
1.0225 0.129171 7.55122
1.88043 -2.69293 7.80292
0.666432 3.18439 8.62509
0.583075 3.79788 8.63333
