ply
    format ascii 1.0           
    element vertex 82
    property double x           
    property double y           
    property double z           
    end_header
-0.00101398 -0.184527 0.37421
-0.00320325 -0.127101 0.374539
-0.0388124 -0.155356 0.373511
0.0106335 -0.135544 0.369721
-0.0331681 -0.0852309 0.407803
0.00315378 -0.106607 0.373425
-0.00874361 -0.101899 0.385756
-0.0235318 -0.159008 0.368568
-0.0280805 -0.145949 0.377714
0.0214852 -0.105138 0.372091
-0.00816177 -0.164624 0.372616
-0.0157866 -0.0421104 0.416241
-0.0294491 -0.0502842 0.414126
-0.0216814 -0.0723306 0.402317
-0.0288464 -0.0284093 0.422816
-0.0188594 -0.0868078 0.397594
0.0116186 -0.0941388 0.378927
-0.0145306 -0.118879 0.384239
0.0116529 -0.120576 0.374963
0.00613878 -0.170754 0.377262
-0.0039476 -0.143791 0.377414
-0.0370588 -0.110628 0.393898
0.0270984 -0.0934621 0.380412
-0.00363267 -0.0933337 0.397437
0.0202518 -0.18595 0.393776
-0.0368871 -0.0612676 0.417882
0.0402871 -0.181126 0.415301
0.0274191 -0.119282 0.376929
0.0352449 -0.106937 0.383645
-0.0166096 -0.184131 0.380159
-0.00332395 -0.0415307 0.42736
-0.033084 -0.170701 0.374195
-0.0084855 -0.0556266 0.418197
-0.00775666 -0.079793 0.405527
-0.0156709 -0.153109 0.380593
0.026219 -0.147396 0.388547
0.0101662 -0.190973 0.383288
0.0029681 -0.0647311 0.426312
0.0104657 -0.161972 0.388258
0.0310075 -0.195639 0.415976
0.0207006 -0.133171 0.382682
0.0191112 -0.170836 0.396968
0.0316719 -0.151993 0.426887
-0.000518941 -0.0765521 0.418182
0.0126905 -0.147649 0.380367
0.0406962 -0.166932 0.415701
-0.00818036 -0.0666766 0.409149
0.00512775 -0.0857465 0.409813
-0.0145123 -0.0305298 0.426531
0.0106244 -0.0810886 0.423938
0.0299263 -0.133927 0.421744
0.0133808 -0.203862 0.414823
0.0209593 -0.141019 0.414183
0.0229775 -0.12069 0.425485
0.0267818 -0.168464 0.408969
0.0109129 -0.197907 0.396961
0.0297696 -0.188345 0.405111
0.0409117 -0.173404 0.42829
0.0116293 -0.094738 0.420466
0.0185088 -0.139072 0.397964
0.025964 -0.0972153 0.394071
0.0279808 -0.127177 0.39516
0.00391483 -0.177798 0.388829
0.023656 -0.125185 0.409721
0.0377196 -0.186614 0.427455
0.0191927 -0.15524 0.40068
0.0261724 -0.112195 0.397834
0.00856071 -0.108173 0.413472
-0.00467586 -0.112017 0.440894
0.00341878 -0.0908364 0.434495
-0.00430742 -0.0407768 0.42539
0.000607871 -0.105289 0.428385
-0.0269387 -0.139938 0.452033
-0.0135707 -0.0395952 0.438229
-0.0213368 -0.162239 0.449656
0.0138165 -0.128802 0.435114
0.0102098 -0.0968934 0.404419
-0.020368 -0.0140613 0.431335
5.2426e-05 -0.0767127 0.433192
0.0199713 -0.194718 0.427695
-0.00746814 -0.0552475 0.433956
-0.0223678 -0.0581568 0.439852
