ply
    format ascii 1.0           
    element vertex 75
    property double x           
    property double y           
    property double z           
    end_header
-0.91496 -0.359177 4.20939
-0.91188 -0.178983 4.2724
-0.898905 -0.519804 4.05965
-0.920892 -1.22835 3.73571
-0.847196 -0.248807 4.15416
-0.807128 -1.22308 3.64815
-0.799712 -0.661492 3.56692
-0.87573 -0.734238 3.69175
-0.690797 -1.22429 3.56938
-0.720707 -1.35379 3.57518
-0.916121 -1.12962 3.82942
-0.74693 -0.547863 3.59852
-0.798351 -0.93802 3.56563
-0.802601 -1.046 3.69086
-0.705073 -0.755916 3.53295
-0.795683 -0.814619 3.61649
-0.654509 -0.629266 3.54569
-0.587401 -1.36566 3.54239
-0.262359 -1.17884 3.54617
-0.906342 -1.33843 3.80052
-0.718608 -0.199525 4.13371
-0.486698 -1.28974 3.54562
-0.766152 -0.337249 4.09568
-0.791839 -0.529292 3.97406
-0.290079 -1.06792 3.57657
-0.836658 -0.598087 3.68692
-0.79803 -0.429539 4.02904
-0.504256 -1.17404 3.60097
-0.636158 -0.36728 4.05661
-0.692668 -1.02325 3.59496
-0.621231 -1.13331 3.61995
-0.818141 -1.1577 3.76066
-0.670937 -0.883093 3.57562
-0.684702 -0.53646 3.91169
-0.296263 -0.970821 3.71529
-0.577064 -0.478135 3.95613
-0.681707 -0.477017 4.00908
-0.37828 -0.839433 3.73274
-0.344625 -1.42811 3.66424
-0.801091 -0.144812 4.22271
-0.356333 -1.06284 3.67882
-0.399804 -1.12808 3.62881
-0.568895 -0.803991 3.60949
-0.362595 -1.2679 3.54425
-0.483923 -1.40256 3.59502
-0.416098 -0.754451 3.81893
-0.270601 -1.31459 3.56824
-0.575392 -0.972754 3.54443
-0.455532 -0.924098 3.73335
-0.193947 -1.10964 3.62509
-0.512188 -1.0458 3.63734
-0.500525 -0.795407 3.7184
-0.652077 -0.578335 3.67396
-0.186342 -1.2215 3.62682
-0.609846 -1.2783 3.62687
-0.572758 -0.931057 3.6696
-0.597395 -0.691108 3.66671
-0.562754 -0.585143 3.90901
-0.519189 -0.5687 4.04462
-0.825489 -0.0245266 4.31272
-0.683444 -0.205177 4.24932
-0.44826 -1.03776 4.22649
-0.535265 -0.692884 3.98486
-0.588003 -0.702568 3.8583
-0.462471 -0.755646 4.07329
-0.367665 -0.837572 3.89593
-0.652562 -0.611885 3.81001
-0.25555 -1.33612 3.71128
-0.742322 -0.188667 4.16177
-0.36871 -1.18556 4.11219
-0.592035 -0.472163 4.10651
-0.692648 -0.360544 4.07512
-0.166042 -1.21974 3.59762
-0.133519 -1.20647 3.68571
-0.264745 -0.963081 3.69161
