ply
    format ascii 1.0           
    element vertex 69
    property double x           
    property double y           
    property double z           
    end_header
-0.433964 -0.3197 4.43806
-0.490081 -0.175038 4.5502
-0.390788 -0.0877464 4.46263
-0.507512 -0.663095 4.35515
-0.810322 -1.30701 4.14001
-0.328287 -1.07147 4.01817
-0.539732 -1.41723 4.04404
-0.469167 -1.04323 4.08388
-0.534888 -0.448364 4.39619
-0.530654 -1.0106 4.20923
-0.396461 -0.720894 4.25224
-0.372767 -1.37161 3.92645
-0.277611 -0.19489 4.42942
-0.763386 -1.20003 4.19356
-0.427562 -0.907673 4.14005
-0.206765 -1.36677 3.9106
-0.461685 -1.2886 4.02424
-0.487999 -0.853434 4.29578
-0.140537 -0.75236 4.12506
-0.289333 -0.798342 4.16279
-0.387092 -0.425907 4.34957
-0.783341 -1.43309 4.23165
-0.0307956 -1.11464 3.98816
-0.273828 -0.917614 4.06055
-0.556112 -1.25048 4.15282
-0.65906 -1.32936 4.11016
-0.330114 -0.584813 4.31146
-0.103715 -0.898929 4.07321
-0.192043 -1.16731 3.98157
-0.528856 -0.926755 4.38655
-0.36532 -1.5828 4.20244
-0.436325 -1.17052 4.11849
-0.0387731 -1.2713 3.92268
-0.31 -1.27051 4.00756
-0.222472 -0.704982 4.25207
-0.240977 -0.468458 4.33934
-0.0243921 -1.45465 3.94115
0.0391384 -0.993109 4.07529
-0.332004 0.170796 4.5654
-0.226458 -1.53702 4.09489
-0.630786 -1.17334 4.23737
-0.158923 -1.04184 4.07981
0.102569 -1.35157 3.98338
0.284465 -1.23569 4.10691
-0.222824 -0.366341 4.46493
0.381428 -1.10341 4.28849
0.0449611 -0.840094 4.12946
0.237733 -1.40658 4.05939
0.0753111 -0.761043 4.25961
0.187099 -0.860461 4.19615
-0.44112 0.0412553 4.5998
0.240459 -1.03335 4.30411
0.240171 -1.11375 4.19707
0.133342 -1.28698 4.11472
0.101597 -1.15054 4.10669
-0.180443 -0.642475 4.37135
-0.0665841 -0.725706 4.41538
-0.275805 0.0627438 4.68838
0.0767567 -1.60904 4.13518
-0.370345 -1.58889 4.20097
0.115981 -1.49241 4.04674
0.443674 -1.20725 4.3924
0.115207 -0.983775 4.2323
0.301226 -1.38301 4.21241
0.374606 -1.34249 4.3673
0.319728 -1.05342 4.44442
-0.244792 -0.270264 4.54471
0.320908 -1.23287 4.25103
-0.245151 -0.540872 4.47044
