ply
    format ascii 1.0           
    element vertex 81
    property double x           
    property double y           
    property double z           
    end_header
-0.915257 -1.32245 3.85748
-0.67567 -0.407189 4.20501
-0.763253 -0.573435 4.08013
-0.805602 -1.24569 3.74521
-0.779692 -0.501732 4.15582
-0.846584 -1.42923 3.73164
-0.851951 -1.18824 3.88682
-0.859823 -1.12511 4.00691
-0.744475 -0.743628 4.02236
-0.837618 -1.10554 3.88931
-0.735002 -1.23391 3.69188
-0.786827 -1.33058 3.75036
-0.768442 -0.968531 3.89455
-0.801886 -1.1341 3.80261
-0.834678 -1.04423 4.04023
-0.812517 -1.53118 3.71912
-0.888145 -1.21364 3.97527
-0.856232 -1.3655 3.79779
-0.842921 -1.28486 3.81176
-0.79731 -0.914041 3.96448
-0.903198 -1.25276 3.89907
-0.887572 -1.50553 3.77178
-0.72069 -0.824329 3.98372
-0.784829 -0.835028 4.02684
-0.68147 -0.577928 4.06236
-0.96874 -1.52723 3.80863
-0.813686 -1.03849 3.93606
-0.752505 -1.45906 3.70795
-0.676684 -0.656691 4.08611
-0.704772 -1.30485 3.71299
-0.655972 -1.37893 3.6944
-0.728547 -0.909885 3.94281
-0.80616 -1.21684 3.82572
-0.656492 -1.46494 3.693
-0.680214 -0.489042 4.13636
-0.674684 -1.12469 3.81482
-0.727792 -1.19105 3.77175
-0.748173 -0.662408 4.13999
-0.6527 -0.884703 3.94602
-0.658778 -1.52244 3.76209
-0.572054 -1.40485 3.69351
-0.682161 -0.953864 3.9078
-0.701776 -1.02408 3.8701
-0.763118 -0.782294 4.10119
-0.621767 -1.00615 3.89583
-0.792367 -0.607138 4.15802
-0.599725 -1.33441 3.74412
-0.911858 -1.4388 3.83971
-0.490084 -1.36544 3.80107
-0.744829 -1.09486 3.85557
-0.709683 -1.36629 3.76485
-0.726593 -1.53036 3.74012
-0.975405 -1.45906 3.80403
-0.590693 -1.48949 3.73429
-0.597016 -0.931957 3.97839
-0.66375 -1.24286 3.74177
-0.628656 -1.17697 3.86942
-0.673064 -0.743287 4.05766
-0.759425 -0.668297 4.1334
-0.663038 -1.465 3.68513
-0.635083 -1.08753 3.87215
-0.677146 -0.395323 4.21319
-0.814793 -1.04194 3.94335
-0.554389 -1.33273 3.80927
-0.610236 -0.734287 4.10851
-0.669062 -0.474481 4.15119
-0.677567 -0.654055 4.08894
-0.56727 -1.41331 3.69984
-0.528139 -1.45728 3.79442
-0.639758 -0.693373 4.21402
-0.536458 -1.39963 3.76658
-0.609914 -1.13666 3.94028
-0.612106 -0.870977 4.10789
-0.590414 -1.05732 3.95541
-0.629621 -0.450048 4.24883
-0.634085 -0.861225 4.02705
-0.621254 -1.20769 3.95836
-0.651962 -0.556054 4.1269
-0.644193 -1.25384 3.80308
-0.640851 -0.527402 4.2196
-0.610384 -1.03523 4.05462
