ply
    format ascii 1.0           
    element vertex 80
    property double x           
    property double y           
    property double z           
    end_header
-0.577785 -1.05496 4.00524
-0.162806 0.0123469 4.57385
-0.987297 -1.34914 3.84645
-0.665586 -1.03118 4.13854
-0.855143 -1.44664 3.78314
-0.379055 -0.863506 4.0248
-0.673843 -1.16931 4.06817
-0.105743 -0.125475 4.43623
-1.05961 -1.41162 4.03722
-0.697194 -1.40611 3.74812
-0.320742 -0.725218 4.05798
-0.069061 -0.414377 4.18134
-0.356654 -0.410695 4.25287
-0.447841 -1.27693 3.7177
-0.367814 -1.13983 3.75189
-0.506835 -0.934889 4.08846
-0.368084 -1.00385 3.97497
-1.04803 -1.27474 3.98233
-0.695506 -1.54537 3.79205
-0.0394289 -1.47376 3.85045
-0.814013 -1.30254 3.8397
-0.652893 -1.28888 3.86483
-0.553478 -1.54481 3.72086
-0.979871 -1.51073 3.90331
-0.238988 -0.894203 3.95982
-0.176932 -0.781777 4.05724
-0.32248 -1.39221 3.80075
-0.321981 -1.60502 3.80423
-0.234303 -1.24314 3.77754
-0.198539 -0.355647 4.26278
-0.125625 -1.6492 3.78103
-0.846083 -1.57914 3.85097
-0.213905 -1.51054 3.85867
-0.0641441 -0.572928 4.19625
-0.916857 -1.23615 3.92396
-0.263958 -1.7409 3.81584
-0.553433 -1.41325 3.79006
-0.294386 -0.290949 4.37048
-0.101975 -0.952101 4.01109
-0.781049 -1.23784 3.96766
-0.437532 -1.70952 3.81844
-0.00288699 -0.254706 4.54919
-0.733294 -1.66884 3.87153
0.142372 -1.53261 3.93583
0.026706 -1.43356 3.97179
0.278896 -1.62092 3.96155
-0.221971 -0.489922 4.195
0.00691794 -1.61723 3.86249
-0.505378 -1.16805 3.84484
-0.315714 -0.572294 4.10095
-0.499383 -0.790227 4.16905
0.25093 -1.77587 3.95962
-0.452246 -1.55183 3.81428
0.0100572 -1.7423 3.93064
-0.171166 -0.650006 4.12737
-0.219504 -1.04625 3.92847
-0.600994 -1.66373 3.77367
-0.070956 -1.18155 4.16275
0.152364 -1.67584 3.86171
-0.0410457 -0.795037 4.33615
-0.185437 -1.1634 4.04448
0.211777 -1.55319 4.09335
-0.117036 -0.787982 4.19718
-0.0235916 -0.367001 4.34106
-0.085645 -0.914471 4.15009
-0.220211 -1.32217 3.93983
-0.0506862 -0.624662 4.4241
-0.144864 -1.76639 3.91973
-0.150101 -1.31457 4.08277
-0.0870027 -0.126126 4.58873
-0.108474 -1.06019 4.26544
-0.141425 -1.30221 4.25148
-0.327101 -1.18195 3.91335
-0.0792013 -0.52095 4.31383
-0.139106 -1.6645 3.80921
-0.0990502 -0.670988 4.29035
0.0401037 -1.42752 3.97032
-0.130595 -1.05128 4.11379
0.202855 -1.71122 4.1303
0.127634 -1.45581 4.08312
