ply
    format ascii 1.0           
    element vertex 71
    property double x           
    property double y           
    property double z           
    end_header
-0.828734 -0.16064 3.87235
-0.750091 -0.767779 3.51972
-0.907141 -1.08692 3.44736
-1.1807 -1.02539 3.59292
-0.741914 -0.244787 3.85248
-0.774301 -0.580019 3.65298
-0.91521 -0.997969 3.49066
-1.03753 -1.00823 3.51555
-0.923966 -0.858078 3.55471
-1.12879 -1.11457 3.54861
-1.06745 -0.826959 3.65908
-0.867951 -0.59406 3.72771
-0.85905 -0.363192 3.83969
-0.666725 -0.429734 3.78642
-1.00467 -0.929104 3.57314
-0.656812 -0.987612 3.54721
-0.854931 -0.701249 3.67574
-0.822108 -0.463659 3.82203
-0.813498 -0.882892 3.54129
-0.968481 -0.783826 3.61132
-1.10277 -0.969194 3.59553
-0.862654 -0.271415 3.89556
-0.693835 -0.873102 3.52435
-0.790181 -0.730106 3.61105
-0.991101 -1.09784 3.51755
-0.700145 -0.68058 3.56884
-0.755564 -0.352612 3.81238
-0.681074 -1.18207 3.55721
-0.926742 -0.713183 3.75558
-0.752357 -0.530413 3.75006
-0.71058 -0.14001 3.89867
-0.859633 -0.792887 3.60089
-0.623603 -0.214272 3.91845
-0.800362 -0.0876453 3.94883
-0.640949 -0.779985 3.56762
-0.723513 -1.07578 3.58498
-1.19551 -1.10849 3.64202
-0.649182 -0.340847 3.86026
-0.826342 -0.994274 3.53614
-1.04009 -1.17723 3.55148
-0.472474 -0.939403 3.71728
-0.593552 -1.08369 3.57216
-0.94154 -1.18151 3.53155
-0.533405 -0.999002 3.62064
-1.06162 -0.919775 3.6481
-0.85043 -1.15483 3.47621
-0.798447 -1.08161 3.48971
-0.750529 -0.959771 3.5841
-0.657692 -0.607453 3.68418
-0.484198 -1.17145 3.70976
-0.59544 -1.16833 3.64439
-0.647992 -0.54223 3.76802
-0.519068 -0.849009 3.76189
-0.618279 -0.905205 3.61051
-0.575801 -0.576045 3.84077
-0.785713 -1.15866 3.55576
-0.648441 -0.774943 3.55973
-0.610094 -0.701346 3.63165
-0.439761 -1.20535 3.82285
-0.599436 -0.809243 3.64511
-0.570764 -0.898903 3.69745
-0.494828 -1.06023 3.70912
-0.569421 -0.694924 3.83056
-0.630056 -0.453395 3.9012
-0.442702 -1.11045 3.79268
-0.684277 -0.0867039 3.98953
-0.521793 -1.2431 3.7885
-0.8655 -1.22385 3.55052
-0.603193 -0.780626 3.74657
-0.510472 -1.04867 3.83801
-0.642845 -0.637385 3.93414
