ply
    format ascii 1.0           
    element vertex 69
    property double x           
    property double y           
    property double z           
    end_header
-0.38671 -0.936961 2.10795
-0.35851 -0.249637 2.30123
-0.343581 -0.0786645 2.36472
-0.453599 -0.813093 2.14301
-0.478336 -0.690215 1.92183
-0.383725 -0.69935 1.84
-0.328319 -0.339325 2.15392
-0.422098 -0.653209 2.1071
-0.343783 -0.0188796 2.43083
-0.354 -0.117553 2.45855
-0.330005 -0.16679 2.29846
-0.366191 -0.443598 2.15139
-0.366396 -0.561979 2.05721
-0.434331 -0.779883 1.86715
-0.348991 -0.551266 1.97915
-0.39412 -0.536994 2.13296
-0.343026 -0.4777 2.07682
-0.306569 -0.212621 2.22868
-0.399101 -0.628998 1.90855
-0.261418 -0.445303 2.04914
-0.300408 -0.396578 2.10629
-0.255455 -0.0293714 2.37458
-0.18366 -0.487669 2.00845
-0.294088 0.0422956 2.48807
-0.23242 0.0503026 2.41726
-0.223929 -0.366909 2.05957
-0.163933 -0.279564 2.13011
-0.244562 -0.211529 2.18003
-0.224766 -0.662192 1.91557
-0.268407 -0.562628 1.95979
-0.192779 -0.16771 2.23266
-0.472599 -0.78244 1.95124
-0.335097 -0.789782 1.85726
-0.240271 -0.758 1.87091
-0.188073 -0.603606 1.96092
-0.24219 -0.316252 2.10906
-0.369485 -0.921201 1.94182
-0.168993 -0.835752 1.9003
-0.171051 -0.729781 1.94266
-0.16589 -0.424594 2.06424
-0.311775 -0.631412 1.93587
-0.111659 -0.577583 2.03985
-0.139353 -0.366618 2.10323
-0.257131 -0.136154 2.2779
-0.043413 -0.664553 2.06278
-0.288082 -0.523728 2.02878
-0.316692 -0.7007 1.89875
-0.154695 -0.22869 2.19658
-0.333497 -0.298303 2.21263
-0.0959766 -0.784193 1.93506
-0.233419 -0.111956 2.34502
-0.0975902 -0.321415 2.16895
-0.126152 -0.659082 2.00357
-0.0640003 -0.475255 2.20644
-0.106315 -0.504734 2.08066
-0.072101 -0.394932 2.15882
-0.277257 -0.850621 1.92365
0.00635343 -0.867637 2.07198
-0.0757811 -0.728737 2.00518
-0.436865 -0.777781 1.86933
-0.0345908 -0.785618 2.09212
-0.0709836 -0.878048 1.92807
-0.0981301 -0.446827 2.12192
-0.0256552 -0.816145 1.99073
-0.231388 -0.0304627 2.48505
-0.166145 -0.166726 2.31198
-0.239373 -0.0891085 2.56691
-0.215609 -0.110841 2.4381
-0.0584465 -0.913428 2.00574
