ply
    format ascii 1.0           
    element vertex 79
    property double x           
    property double y           
    property double z           
    end_header
0.214037 0.407591 3.57028
0.376672 0.564318 3.70699
0.254035 0.657042 3.72491
0.202067 -1.03924 3.23997
0.337503 0.33635 3.54383
0.0908551 -0.942234 3.2566
-0.21673 -0.780023 3.18276
0.219405 0.25814 3.51995
0.0772296 -0.670316 3.26642
0.178692 0.00788306 3.42301
-0.124365 -0.690057 3.21671
0.158118 -0.258793 3.38147
0.0761986 0.228326 3.51755
0.0528976 -0.521448 3.23358
-0.0607318 -0.193138 3.45749
0.0224182 -0.0173059 3.4422
-0.106963 -0.851818 3.17773
0.0868107 -0.375436 3.38709
0.155368 -0.12681 3.406
0.191355 0.136683 3.48699
-0.327728 -0.739611 3.26211
0.0676781 0.0944233 3.46423
0.382742 0.166133 3.65974
-0.307167 -0.887278 3.24287
0.235056 -0.89485 3.30183
0.340345 -0.862368 3.39009
-0.0281556 -0.445112 3.31984
-0.174868 -1.085 3.31359
-0.0516992 -0.597557 3.29349
0.297076 -0.297135 3.51631
0.463765 -0.931966 3.41732
0.327138 -1.00716 3.34271
0.501677 -0.825779 3.52752
-0.0277733 -0.308804 3.37583
0.23417 -0.498689 3.48035
-0.18987 -0.955078 3.26469
-0.00885177 -0.838772 3.26661
0.140271 -0.558488 3.33544
0.056489 -1.09417 3.27101
0.186281 -0.680419 3.37764
0.300547 0.0463353 3.50154
0.244237 -0.188843 3.48038
-0.311697 -0.655799 3.34374
0.313408 -0.58068 3.56649
0.414301 -1.08604 3.44766
0.111163 -0.800581 3.32741
0.347257 -0.101217 3.64737
0.0493975 -0.139124 3.46813
0.216444 -0.34975 3.43591
-0.0529536 -0.96601 3.26457
0.324863 -0.789996 3.50464
0.217827 -0.815143 3.42212
0.55274 -0.966846 3.53232
-0.122338 -1.19963 3.39238
0.304526 -1.15744 3.47688
-0.152533 -0.368211 3.3892
0.224755 -1.13595 3.34473
0.40802 0.301372 3.65433
0.27385 0.148664 3.59014
0.232482 -0.0701378 3.54228
0.335245 0.0419068 3.63851
0.071733 -1.15669 3.38988
0.504869 -0.893398 3.68182
0.405625 -1.12462 3.56196
0.170887 -0.689251 3.53643
0.412279 -1.07538 3.42803
0.211335 -0.28755 3.76749
0.336046 0.0892892 3.77636
0.336283 0.598423 3.84689
0.374679 0.571463 3.69405
0.467018 -1.02288 3.63069
0.271401 -0.242027 3.63253
0.230849 -0.448754 3.63143
0.397808 0.312091 3.64872
0.375005 0.232951 3.77931
0.261545 -0.137821 3.7515
0.378672 0.398145 3.82336
0.293595 -0.587296 3.7004
0.271565 0.00208987 3.789
