ply
    format ascii 1.0           
    element vertex 83
    property double x           
    property double y           
    property double z           
    end_header
-0.213834 -0.467759 4.54237
-0.240002 -1.70365 4.03616
-0.284542 -0.473697 4.69775
-0.123193 -1.7781 3.9681
-0.617445 -1.71707 4.16859
-0.0394247 -0.308568 4.63199
-0.487669 -1.49982 4.12165
-0.343641 -0.771557 4.43233
-0.165183 -0.262165 4.71089
-0.339605 -1.31339 4.10858
-0.374503 -0.88659 4.40247
-0.231125 -1.07413 4.26236
-0.573333 -1.59819 4.1045
-0.409875 -1.41435 4.18125
-0.401005 -1.27058 4.22999
-0.285163 -1.45264 4.10084
-0.24466 -0.953825 4.30987
-0.338547 -0.658266 4.4976
-0.224093 -0.711894 4.418
-0.236122 -0.826252 4.34015
-0.461334 -1.64346 4.04514
0.223306 -1.57389 4.2003
-0.204216 -0.59954 4.4652
-0.422626 -1.06942 4.40875
-0.65497 -1.5888 4.22393
-0.498716 -1.23214 4.33087
-0.498659 -1.35284 4.27937
-0.448395 -1.89074 4.15372
0.0288673 -1.6124 4.11371
-0.28149 -1.1985 4.26574
-0.094621 -1.30257 4.28458
-0.175534 -0.388552 4.64298
-0.344363 -1.62521 4.09473
-0.402093 -1.15488 4.30771
0.0088799 -0.68137 4.52878
-0.247016 -1.85686 4.03519
-0.0941288 -1.64585 4.05063
-0.626119 -1.52265 4.32684
0.172235 -1.66332 4.08039
-0.103293 -0.777952 4.3854
-0.328449 -0.996155 4.38892
-0.495179 -1.7667 4.14233
0.0245181 -1.74426 4.03554
0.0090702 -0.93644 4.47689
-0.512881 -1.46461 4.25347
-0.213529 -1.5785 4.11897
-0.362877 -1.99468 4.18683
-0.369124 -1.74911 4.08067
0.0192416 -1.3803 4.33022
-0.147227 -1.46249 4.17027
-0.0933867 -0.502002 4.464
-0.0546235 -1.10703 4.33433
0.0379742 -1.56105 4.23516
-0.307438 -1.10904 4.34896
-0.388252 -1.53459 4.14195
-0.129863 -1.01017 4.3457
-0.0830669 -1.59162 4.18719
-0.0566949 -1.88783 4.05072
-0.217654 -1.34976 4.16162
0.295016 -1.7054 4.16404
-0.145818 -1.15747 4.27585
0.0630769 -1.91694 4.13688
-0.14021 -0.908437 4.43273
-0.503919 -1.34764 4.27728
0.283237 -1.66629 4.33043
-0.0274762 -0.801171 4.50158
0.0182548 -0.538726 4.53559
0.147146 -1.81245 4.07584
-0.0969344 -1.49349 4.29602
-0.0398691 -1.29099 4.42014
0.187322 -1.88619 4.19917
-0.120333 -0.707113 4.51163
0.0110391 -0.782688 4.62932
0.0480733 -1.41903 4.45254
-0.0512886 -1.07703 4.46342
-0.0579931 -1.16503 4.5867
0.00752563 -0.628473 4.6633
0.0398314 -0.491652 4.71121
-0.0174555 -1.50016 4.39205
-0.0469782 -0.892129 4.65833
-0.13402 -1.19394 4.38965
-0.0258676 -0.324932 4.77748
0.260686 -1.796 4.26227
