ply
    format ascii 1.0           
    element vertex 82
    property double x           
    property double y           
    property double z           
    end_header
-0.365973 -1.32072 3.45921
-0.262782 -1.0927 3.53966
-0.386438 -1.21561 3.5125
-0.170276 -0.591866 3.84138
-0.236832 -1.20025 3.54075
-0.213401 -1.38817 3.49361
-0.304402 -0.78028 3.75345
-0.126999 -1.45267 3.46652
-0.277881 -0.621455 3.83997
-0.0882542 -0.533774 3.87495
-0.451674 -1.2787 3.48324
-0.39847 -1.50326 3.52733
-0.324769 -1.05617 3.61705
-0.502656 -1.36034 3.50657
-0.166837 -0.443689 3.9873
-0.530002 -1.26521 3.54694
-0.354987 -0.910988 3.746
-0.193637 -0.93108 3.67667
-0.336245 -1.16155 3.5779
-0.24184 -1.01668 3.66808
-0.190235 -0.752247 3.74137
-0.278055 -0.701106 3.78425
-0.0637447 -0.399539 4.00879
-0.23088 -1.49709 3.48438
0.0913364 -1.33945 3.70546
-0.331484 -0.974733 3.67465
-0.291104 -1.32094 3.51951
-0.182981 -0.494706 3.90169
-0.0304703 -1.34588 3.6022
0.0686 -1.40094 3.60796
-0.413168 -1.10128 3.62907
-0.186834 -0.669696 3.80629
-0.20163 -0.84402 3.71245
-0.0326529 -1.44562 3.54366
-0.351751 -1.59043 3.56093
-0.418474 -1.4077 3.51314
-0.122044 -1.11137 3.71338
-0.108703 -1.35838 3.53289
-0.153688 -1.22301 3.61761
-0.522256 -1.22099 3.62271
-0.191874 -1.13216 3.60253
-0.202172 -1.30047 3.56357
-0.042571 -0.672815 3.93043
-0.144081 -1.00218 3.7031
-0.319245 -1.41191 3.50604
-0.132421 -0.895273 3.75829
-0.10412 -0.731064 3.80515
0.0367259 -1.50608 3.59535
-0.10474 -1.54014 3.53323
-0.0581557 -1.17939 3.76383
-0.0566107 -0.858205 3.88809
0.137357 -1.44256 3.68823
-0.0281037 -0.572126 3.94123
-0.0414534 -1.57019 3.62229
-0.0468626 -1.31601 3.69704
-0.148282 -0.822928 3.82245
-0.0737551 -0.75674 3.89892
-0.131 -0.680186 3.89151
-0.0874977 -0.973547 3.76642
0.0977346 -1.4168 3.8074
-0.11484 -1.10823 3.82285
0.0347891 -1.56571 3.68643
-0.0435711 -0.542729 4.0758
-0.149469 -1.01494 3.94397
-0.0723904 -1.21129 3.85975
-0.0751816 -0.746628 4.00131
-0.164475 -1.03113 3.78541
-0.11756 -1.26382 3.80019
-0.1084 -0.953455 3.85646
-0.0935766 -0.412806 4.1165
-0.0563476 -0.641988 4.02285
0.0798488 -1.50821 3.74881
-0.118128 -0.906269 3.95371
-0.132223 -1.25676 3.71628
-0.132683 -0.816398 4.00352
-0.141391 -1.59887 3.62005
-0.22507 -0.964299 4.00099
-0.287293 -1.47104 3.99095
-0.182891 -1.34104 3.86228
-0.330203 -1.58199 3.86141
-0.221667 -1.427 3.92593
-0.302971 -1.50572 3.91198
