ply
    format ascii 1.0           
    element vertex 71
    property double x           
    property double y           
    property double z           
    end_header
-1.60019 -2.90266 9.37304
-1.47902 0.232045 10.8503
-0.91723 -0.754773 9.63157
-1.42225 -2.39117 9.499
-1.5207 -1.50738 10.0271
-0.946438 -1.63827 9.34665
-1.28511 -0.964025 9.98386
-0.422535 -2.7642 8.6148
-1.27841 -0.162785 10.5141
-1.46537 -2.32502 10.8374
-1.33718 -1.89625 10.5199
-1.15039 0.497677 10.4588
-0.623648 -3.23397 8.72934
-1.20269 -3.19668 9.07721
-1.21465 0.980561 10.7906
-1.08353 -2.63795 9.15034
-1.62939 -2.69528 9.90048
-1.44609 -0.449497 10.8731
-0.986908 0.794256 11.8533
-1.93822 -3.24833 9.64128
-1.55223 -1.28787 10.5704
-0.467628 -2.32127 8.91384
-0.925565 -1.28763 9.72682
-1.31717 -0.750665 10.4283
-0.164531 -1.54169 9.10505
-1.06829 -3.53902 9.57859
-0.780858 1.31894 10.7515
-1.07381 -0.514825 10.0436
-0.840572 -2.88927 8.89908
-0.554497 -1.87341 9.1616
-1.254 -1.99562 11.081
-0.0271746 -1.19947 9.39952
-0.451113 -1.00446 9.65387
-1.06581 -2.0427 9.60315
-0.704718 0.867554 10.5323
-0.629545 0.405372 10.2667
-1.0448 -1.74064 10.0447
-1.15653 -2.36075 10.418
-0.978216 0.061968 10.2334
-1.88256 -3.095 10.141
-1.12002 1.37697 11.0461
-0.643289 -0.102167 10.0578
-0.100003 -2.03466 9.01195
-0.484168 -1.49845 9.49869
-0.992525 2.11274 11.8314
-0.703875 2.05385 11.2987
-0.738564 2.70771 11.6975
-0.105509 -0.474106 10.2382
-1.05984 2.4756 12.1437
-0.218529 0.640218 10.5006
0.479236 -2.27201 9.20585
-0.237963 2.03277 11.5234
-0.0457646 -2.47839 9.15382
-0.295024 -0.0140781 10.3229
-0.13882 0.229321 10.6342
-0.0329528 -2.98562 8.97556
0.0429094 -0.219256 10.741
-0.392432 2.99648 12.2273
-0.451802 -0.648675 9.9109
0.295194 -1.32971 9.71687
0.239888 -1.86047 9.13406
-0.321215 1.09641 10.8134
-0.0433208 0.893579 11.2636
-0.00214227 1.33303 11.3768
-0.475117 -3.31445 9.27695
0.462512 -2.753 9.53975
0.421764 -1.79877 9.59461
-0.334004 1.54232 11.0732
-0.813659 1.59426 11.3959
-0.0673058 0.49033 11.5438
-0.0705654 -1.16911 10.5502
