ply
    format ascii 1.0           
    element vertex 79
    property double x           
    property double y           
    property double z           
    end_header
-1.30969 -3.47655 9.60167
-1.25631 -2.89116 9.91526
-1.35704 -2.37939 9.93688
-1.16523 -3.16205 9.13769
-1.13202 -2.08888 9.64305
-0.872721 -3.58146 8.54823
-1.10844 -0.864421 11.0876
-1.122 -4.27956 9.71647
-1.09857 -3.91498 9.47473
-1.31371 -3.59566 9.1378
-1.19841 -2.61167 9.608
-1.31761 -4.59454 8.48303
-1.12602 -2.44703 10.3664
-1.14072 -2.05682 10.5553
-1.05267 -1.08701 10.773
-1.11624 -1.69108 10.6245
-1.2103 -4.19425 8.62052
-0.901913 -0.601703 10.742
-1.13031 -4.11393 9.04009
-0.896851 -2.92601 8.85683
-0.993148 -4.77127 8.19125
-1.48056 -4.82981 9.06473
-1.02051 -2.81051 9.20583
-1.5348 -4.9323 8.65467
-1.2019 -1.77129 9.93693
-0.824538 -1.00669 10.3637
-1.28644 -4.49662 8.95259
-1.13167 -1.51376 10.175
-0.925893 -4.02308 9.96614
-0.860284 -4.60865 9.60971
-1.04588 -3.24567 9.96496
-1.13077 -3.05889 9.5465
-0.892144 -1.30826 10.9753
-1.20507 -2.1106 10.1749
-0.981313 -2.38281 9.3908
-0.946878 -4.27224 9.38601
-1.18342 -1.79735 10.3243
-0.938823 -4.33084 8.29673
-0.910127 -2.68357 10.3895
-0.453905 -4.03306 8.10211
-0.935922 -3.92035 8.7073
-0.880944 -3.35099 8.86728
-0.246828 -3.42236 8.32129
-0.727829 -4.48456 8.04682
-0.708425 -2.45984 9.22492
-0.555493 -3.71255 8.34294
-0.713407 -2.10332 9.44862
-0.147505 -3.17253 8.58178
-0.833029 -5.05128 8.5528
-0.500672 -3.08712 8.80664
-0.877364 -1.4777 9.92133
-0.79097 -1.79277 9.6935
-0.401774 -4.34429 7.80903
-0.531561 -4.73577 7.8659
-0.549144 -0.698381 10.8718
-0.959274 -0.553272 11.1072
-0.517297 -3.44278 8.63453
-0.384803 -1.92332 9.61638
0.339063 -3.99199 8.30892
-0.157873 -3.78745 8.1695
-0.230765 -2.74606 9.31074
-0.891598 -0.577013 10.7656
-0.506848 -1.31217 10.1232
0.115297 -3.67114 8.30564
-0.418036 -2.40951 9.43051
-0.515856 -2.84308 9.08172
-0.0904114 -4.16897 8.24269
-0.610288 -0.4312 11.1365
-0.11078 -2.61315 9.70912
-0.0403661 -4.54233 8.05334
0.280695 -3.65642 8.66252
-0.290316 -2.24831 9.69975
0.1433 -3.31564 8.83899
-0.123019 -3.30566 9.4502
-0.226533 -1.83621 10.1872
-0.43921 -1.00637 10.5102
-0.483997 -1.6175 9.89614
-0.212911 -1.51412 10.3551
-0.89259 -1.38598 10.3842
