ply
    format ascii 1.0           
    element vertex 79
    property double x           
    property double y           
    property double z           
    end_header
-0.74308 -0.578641 3.88678
-0.658642 -0.51774 3.79303
-0.824116 -1.03394 3.58962
-0.810926 -1.18316 3.60245
-0.811071 -1.59041 3.59414
-0.761775 -0.932359 3.77263
-0.824127 -1.40613 3.39866
-0.835282 -1.35868 3.52711
-0.676883 -1.43615 3.25171
-0.766912 -1.28808 3.39312
-0.774251 -1.11533 3.51168
-0.759319 -0.868526 3.57927
-0.796182 -1.5977 3.27379
-0.672732 -1.23992 3.32033
-0.739024 -1.78262 3.17741
-0.739289 -0.969789 3.50758
-0.757389 -0.825712 3.77447
-0.785696 -1.49437 3.51285
-0.721962 -0.652834 3.80499
-0.54451 -1.69065 3.08096
-0.836682 -1.71145 3.23981
-0.916665 -1.79535 3.28803
-0.697041 -1.06553 3.45181
-0.558881 -1.59164 3.15352
-0.714934 -1.19228 3.41004
-0.683444 -0.712679 3.88225
-0.776365 -1.24654 3.50419
-0.693706 -0.493984 3.8841
-0.711111 -1.65508 3.19737
-0.641263 -0.650859 3.69548
-0.752539 -1.51651 3.66866
-0.841671 -1.66948 3.37204
-0.765564 -1.28985 3.6366
-0.738002 -0.788831 3.64404
-0.775592 -0.955666 3.6594
-0.770529 -0.863007 3.68996
-0.683969 -1.36069 3.33339
-0.583741 -1.49076 3.21152
-0.648645 -1.71445 3.13892
-0.71161 -1.52248 3.30156
-0.4878 -1.41789 3.20798
-0.712385 -1.85796 3.29585
-0.461546 -1.34097 3.27942
-0.617216 -1.10229 3.41779
-0.613876 -0.993047 3.47035
-0.634274 -0.896488 3.52813
-0.563488 -1.30048 3.32897
-0.656746 -0.797801 3.5803
-0.596332 -1.79753 3.1034
-0.469855 -1.5293 3.18033
-0.575886 -1.40511 3.28526
-0.572247 -0.55786 3.84228
-0.523555 -0.949306 3.52718
-0.494237 -1.19464 3.47059
-0.538384 -0.662813 3.74637
-0.394479 -1.49951 3.22444
-0.55624 -0.757314 3.64394
-0.550755 -0.851941 3.59082
-0.541021 -1.0912 3.48858
-0.570043 -1.2204 3.39646
-0.511194 -1.04091 3.57005
-0.467088 -1.6368 3.21264
-0.470974 -1.14803 3.58159
-0.589831 -0.47621 3.89991
-0.360052 -1.48751 3.33291
-0.343493 -1.59631 3.23909
-0.459547 -1.74881 3.17202
-0.395717 -1.38542 3.37272
-0.497356 -0.910148 3.68871
-0.490942 -0.817671 3.73201
-0.799112 -1.5978 3.27693
-0.672861 -0.759333 3.70787
-0.361471 -1.71065 3.30746
-0.46624 -1.25584 3.572
-0.497905 -1.36476 3.5603
-0.511817 -1.00861 3.74716
-0.454287 -1.82753 3.29406
-0.568197 -1.80794 3.21007
-0.361579 -1.5882 3.35168
