ply
    format ascii 1.0           
    element vertex 95
    property double x           
    property double y           
    property double z           
    end_header
-0.00704829 -1.20198 2.95946
-0.07412 -0.621655 3.1904
-0.143669 -0.544988 3.29054
0.0590324 -1.12449 2.94566
-0.125472 -0.46746 3.3427
-0.406277 -1.14481 3.05754
-0.110246 -1.06763 3.04078
-0.202508 -1.03419 3.06358
-0.0640278 -0.878307 3.09157
-0.265746 -1.28617 2.94829
0.0869559 -1.46571 2.95745
-0.0414687 -0.786704 3.10994
-0.191271 -0.751745 3.20637
-0.129372 -0.751769 3.13536
-0.329978 -1.16737 3.01152
-0.339288 -1.2531 3.00747
-0.173667 -1.28827 2.93382
-0.143659 -0.934622 3.08555
-0.0318489 -1.02076 3.04334
0.0450065 -1.32918 2.99321
-0.208978 -1.12644 3.02447
-0.0935313 -0.358024 3.4784
-0.249917 -1.19664 2.97412
-0.11771 -1.36595 2.91627
0.0368695 -1.09228 3.03672
-0.193461 -0.842782 3.19998
-0.0997829 -0.400077 3.39318
-0.149281 -1.45527 2.94726
-0.0161589 -0.93337 3.03454
-0.0512452 -0.499467 3.27626
0.0827995 -1.23765 2.98218
0.156501 -1.31351 2.98718
-0.150583 -1.20412 2.97921
-0.408436 -1.23242 3.08497
0.120472 -1.01566 3.0505
0.275034 -1.21745 3.09135
-0.129591 -0.688461 3.2249
-0.0350137 -1.15256 3.03728
0.0398841 -0.757598 3.15253
-0.207953 -1.37655 2.96178
-0.364127 -1.08732 3.1136
-0.0413877 -0.710081 3.17185
0.0238473 -0.6609 3.22827
0.168179 -1.09488 3.07313
-0.0958191 -1.30042 2.98029
0.020596 -1.42185 3.02317
-0.28202 -1.13085 3.08767
0.0422902 -0.600157 3.28718
0.0418814 -0.98975 3.07519
-0.0692478 -1.23326 3.02785
0.124943 -1.44193 3.04581
0.0283521 -0.841637 3.13685
0.178347 -1.23083 3.0429
-0.0641657 -1.47456 3.00031
0.111747 -0.967273 3.12539
0.109377 -0.908379 3.19014
0.0422217 -0.906703 3.09703
0.0970491 -0.82034 3.1983
0.0102707 -0.547815 3.35772
-0.0638291 -1.38813 2.9903
0.114669 -1.15703 3.01865
0.180952 -1.03249 3.14081
-0.0177881 -0.402928 3.45697
0.239628 -1.30469 3.08693
0.221299 -1.16966 3.1556
0.0668064 -0.706658 3.32848
0.00332186 -0.498976 3.4553
0.300288 -1.32771 3.20234
0.180356 -1.37011 3.06264
0.200184 -1.45809 3.11955
0.233921 -1.37232 3.14781
0.0587182 -0.75147 3.25045
0.0572445 -0.628408 3.37677
0.294146 -1.22963 3.18572
0.227103 -1.4462 3.22146
0.085453 -1.46965 2.96043
0.221515 -1.53497 3.18694
0.0211221 -0.540836 3.34478
0.13935 -1.5836 3.15075
-0.0447027 -0.459253 3.52786
0.272742 -1.27175 3.26065
0.104586 -1.07703 3.29638
0.140944 -1.08352 3.20536
0.00618646 -0.87759 3.34095
-0.0914028 -0.543679 3.50899
0.131578 -1.47806 3.38816
0.187248 -1.42809 3.31593
0.108546 -1.5622 3.34374
0.0745706 -0.906891 3.2779
0.109197 -0.996862 3.22818
0.175889 -1.51265 3.26997
0.0240375 -0.999566 3.31232
0.0667776 -0.631552 3.37739
0.178476 -1.14925 3.27114
0.0362415 -0.782826 3.30721
