ply
    format ascii 1.0           
    element vertex 97
    property double x           
    property double y           
    property double z           
    end_header
-0.89282 -0.936025 3.52169
-0.505409 0.329149 3.79897
-0.696756 -0.718803 3.21535
-0.695633 -0.53092 3.4399
-0.660291 -0.0305989 3.60002
-0.745356 -0.506639 3.58353
-0.627674 -0.211633 3.4587
-0.568019 0.197879 3.60421
-0.598658 -0.0370655 3.75031
-0.89976 -0.760677 3.66914
-0.86941 -0.786408 3.53557
-0.801265 -1.0159 3.28631
-0.633541 -1.34461 3.54338
-0.680141 -0.580113 3.1363
-0.576355 -0.894153 3.15732
-0.521302 -0.376693 3.16545
-0.440193 0.464458 3.83419
-0.842032 -0.910468 3.38663
-0.63809 -0.433346 3.35237
-0.568956 -1.09589 3.04246
-0.745474 -1.21184 3.48463
-0.686658 -0.325073 3.54884
-0.766182 -1.16537 3.33424
-0.779076 -0.661341 3.54093
-0.808596 -0.633654 3.82034
-0.524185 0.144054 3.83967
-0.609172 -0.0574717 3.46655
-0.662698 -0.294306 3.33901
-0.581935 -0.524958 3.24532
-0.593545 -0.178184 3.72761
-0.817305 -1.05488 3.43567
-0.589258 -0.740095 3.11585
-0.611164 -0.646505 3.32631
-0.455808 0.420821 3.68
-0.779886 -0.767138 3.41332
-0.512365 -0.830005 3.01297
-0.49835 0.0198804 3.40236
-0.312519 -0.629161 2.96323
-0.870415 -0.878551 3.81349
-0.726264 -1.13113 3.64351
-0.771419 -0.687146 3.68667
-0.538432 -1.04349 3.19121
-0.430518 0.174777 3.50971
-0.437811 -0.479328 3.10876
-0.508774 -0.119734 3.38688
-0.714982 -0.896145 3.32417
-0.542096 -0.359901 3.29464
-0.353554 0.288236 3.54339
-0.441302 -0.689484 3.04439
-0.621756 -1.1634 3.26923
-0.432557 -1.02982 3.06812
-0.555148 0.0736204 3.52806
-0.322551 -0.767013 2.98047
-0.53898 -0.226704 3.32083
-0.438239 -0.293137 3.24624
-0.383187 -0.0573701 3.35321
-0.657327 -1.01964 3.27117
-0.365849 -0.191573 3.31454
-0.275086 -1.01376 3.03046
-0.537637 -0.60008 3.11565
-0.353478 -0.370357 3.1579
-0.152351 -1.10386 3.02611
-0.253547 0.135212 3.52551
-0.275454 -0.566494 3.08644
-0.127955 -0.769802 2.99344
-0.383461 -0.893583 3.02811
-0.232105 -0.865368 3.02276
-0.211392 0.261906 3.60214
-0.171107 -0.625457 3.00957
-0.352148 0.590821 3.86885
-0.301615 0.3868 3.62899
-0.118543 -0.961935 3.05733
-0.206189 0.634425 3.81728
-0.169272 0.473476 3.75047
-0.161674 -0.538113 3.24641
-0.282353 -0.452315 3.25141
-0.0788157 -0.681828 3.08749
-0.00864813 -1.16365 3.27233
-0.244052 -1.21462 3.09214
0.0520829 -1.01809 3.28663
-0.185077 -0.442291 3.35906
-0.350094 -1.15322 2.97631
-0.247445 -0.142455 3.58756
-0.295531 -0.320504 3.31421
-0.15327 0.388808 3.91631
-0.85588 -0.916243 3.42772
-0.022121 -0.934942 3.18673
-0.0771251 -1.08076 3.15384
-0.339892 0.0428271 3.41305
-0.281381 0.00241945 3.51662
-0.104565 0.532974 3.8711
-0.139566 -0.759295 2.97998
-0.108923 -0.59664 3.44612
-0.106901 -0.821461 3.09261
-0.19179 0.113504 3.6188
-0.655221 -0.296519 3.33742
-0.185798 0.21774 3.7788
