ply
    format ascii 1.0           
    element vertex 66
    property double x           
    property double y           
    property double z           
    end_header
0.0211432 0.207989 0.66118
-0.0537508 0.0382912 0.564939
0.0190589 -0.0128092 0.582322
0.0648955 0.00987442 0.596174
-0.00311595 0.160292 0.636849
0.0640465 -0.0238633 0.616523
0.017688 0.141008 0.640757
0.0173939 0.0622322 0.569245
0.0286993 0.015189 0.581711
0.0668712 0.0417099 0.604446
0.084322 0.0589213 0.617154
0.0199875 0.1259 0.612435
-0.0289371 0.030819 0.57146
0.0139459 0.0848911 0.595374
-0.0488834 0.00832262 0.562922
0.0343294 0.164389 0.648676
0.0965317 0.0351522 0.615607
-0.000632674 0.00857077 0.582711
0.0437373 0.191883 0.662692
0.000375644 0.0417957 0.582508
-0.021162 -0.00640791 0.568004
0.0373558 0.0718455 0.589337
0.0323038 0.0958766 0.613912
0.0359061 0.0428953 0.590309
0.054176 0.0876483 0.63592
-0.0293715 -0.0298432 0.589505
0.0387616 -0.00437107 0.599514
0.0472981 0.138028 0.643677
0.037238 0.113854 0.63713
0.0827884 0.0121447 0.624473
0.0546389 0.152767 0.67063
0.0449669 0.21947 0.678296
0.0470568 0.0638476 0.613799
0.0607028 0.195815 0.68539
0.0478268 0.219996 0.716655
0.0467435 0.10293 0.663147
0.063367 -0.0326087 0.67499
0.04769 0.264891 0.689746
0.0939224 0.0571578 0.643938
0.053121 0.186639 0.710229
0.0490959 0.280522 0.721225
0.0365915 0.136184 0.690548
0.0587091 -0.00677056 0.671223
0.0679698 -0.0116957 0.644708
0.0393607 0.250403 0.718598
0.0780179 0.037952 0.657224
0.0388451 0.170578 0.684442
0.0341055 0.15806 0.70817
0.0297378 0.0859711 0.674448
0.0250798 0.111565 0.684494
0.0516725 0.0677761 0.656444
0.0207859 0.209156 0.656929
-0.0275455 -0.00246278 0.566551
0.0353984 0.167634 0.646878
-0.0552491 0.0139951 0.555866
0.0120549 0.0870385 0.592783
-0.0594419 0.0445437 0.558161
0.0159115 0.143755 0.63987
-0.0036291 0.165631 0.632134
0.0264055 0.016736 0.58149
-0.0537025 0.0542676 0.582256
0.0669665 0.0404695 0.607205
0.0154807 -0.0107513 0.58242
0.00918426 0.182279 0.652478
-0.00956357 0.139057 0.620194
-0.00306317 0.0131106 0.57825
