ply
    format ascii 1.0           
    element vertex 70
    property double x           
    property double y           
    property double z           
    end_header
-0.126354 0.137834 1.03835
-0.161665 -0.0984689 0.995648
-0.0334852 -0.167494 1.02571
-0.137205 0.0827135 1.05211
-0.049212 -0.219565 1.04013
-0.111602 -0.0947705 1.00571
-0.0990946 0.00205752 1.0328
-0.0406606 -0.0422525 1.03415
-0.0797247 0.104699 1.05197
-0.148523 -0.222192 1.07992
-0.0918275 0.0528909 1.03846
-0.115478 -0.143875 1.02318
0.0143574 -0.147252 1.02939
-0.064999 -0.0842145 1.02322
-0.10546 -0.0456252 1.02092
-0.0456303 0.00836761 1.05005
-0.0698012 -0.1301 1.03924
0.0347136 -0.106094 1.05446
0.00482317 -0.202939 1.04027
-0.128941 -0.187886 1.05388
0.000153088 -0.0641904 1.05024
-0.0216031 -0.110584 1.04866
-0.0918976 0.148943 1.0812
-0.120191 0.192445 1.05358
0.0389717 -0.198686 1.07598
0.0557019 -0.153673 1.06761
-0.0936361 0.196946 1.10639
-0.0466965 0.0555058 1.07127
-0.051594 0.118266 1.09798
-0.0312123 0.0197185 1.11078
-0.0181851 -0.0285588 1.08549
0.0455689 -0.165102 1.11603
0.0414254 -0.116542 1.09884
-0.0417198 0.0696485 1.11872
-0.135696 0.225237 1.08681
-0.0699897 0.148575 1.12881
-0.0785473 -0.177506 1.05273
-0.105069 -0.0432498 1.02522
-0.126221 0.14009 1.04037
-0.114332 -0.146495 1.02662
-0.125182 -0.189616 1.06154
-0.143258 -0.226633 1.09339
-0.135982 0.0854627 1.05944
-0.142478 0.0312771 1.05862
-0.148715 -0.0140804 1.03712
-0.173149 -0.187104 1.08182
-0.158714 -0.0977779 0.999109
-0.146226 -0.0619494 1.02646
-0.16009 0.158556 1.07694
-0.18444 0.110976 1.08467
-0.175955 0.0589197 1.08651
-0.151655 -0.142898 1.06383
-0.187493 -0.0882423 1.04123
-0.195028 0.166838 1.10635
-0.201633 -0.181293 1.13596
-0.17191 -0.0486216 1.07023
-0.18519 -0.146109 1.10655
-0.192501 0.0148858 1.10585
-0.208653 -0.141748 1.15349
-0.137657 0.22405 1.0838
-0.194874 0.126404 1.13315
-0.146712 -0.242821 1.14714
-0.16835 -0.202283 1.13119
-0.157473 -0.0177681 1.10783
-0.153815 -0.065947 1.14395
-0.174249 0.169331 1.16082
-0.171732 -0.099167 1.09366
-0.177098 0.0781764 1.13729
0.0338504 -0.105616 1.05097
-0.173377 -0.108217 1.15371
