ply
    format ascii 1.0           
    element vertex 75
    property double x           
    property double y           
    property double z           
    end_header
-0.879221 -0.898021 4.57272
-0.657548 -1.4912 4.35561
-0.668051 -1.20414 4.41606
-1.06059 -2.1192 4.28596
-1.07101 -1.82756 4.28072
-0.649075 -0.866994 4.49709
-0.570438 -1.72045 4.27212
-0.563795 -0.288082 4.52372
-0.552439 -0.0449739 4.61758
-0.791852 -0.177551 4.61618
-0.788724 -1.64206 4.37044
-0.920317 -1.21573 4.73179
-0.832567 -0.667251 4.57412
-0.740517 -0.43186 4.62711
-0.739173 0.0911349 4.73018
-0.793436 -1.1181 4.57884
-0.889157 0.132318 4.92882
-0.800813 -1.39883 4.56578
-0.40547 -0.551439 4.5357
-1.18108 -2.03164 4.46458
-0.971039 -2.30253 4.40435
-1.16773 -1.80071 4.50061
-0.870221 -0.355186 4.83313
-0.777651 0.33673 5.04362
-0.900423 -0.79232 4.77951
-0.846194 -1.61157 4.59886
-1.02673 -2.2304 4.62255
-0.879392 -1.5752 4.77335
-0.929737 -1.01237 4.78478
-0.808387 -0.123874 4.85561
-0.904353 -1.39711 4.76186
-1.02871 -1.65243 5.07736
-0.833154 -0.589525 4.79266
-0.876706 -0.252618 5.0266
-0.5963 0.251828 4.86507
-0.957398 -1.72511 4.87472
-0.970674 -1.75109 4.45181
-0.434183 -1.49312 4.33308
-0.731415 -1.84358 4.31267
-0.615764 -0.626189 4.57626
-0.417929 -0.795478 4.52314
-0.338917 -2.05539 4.37922
-0.414375 -1.86471 4.31923
-0.896055 -1.98368 4.24951
-0.425933 -1.18996 4.45715
-0.328521 -0.338616 4.61582
-0.32797 -1.00168 4.52807
-0.543141 -1.37986 4.4757
-0.565672 -1.07208 4.56274
-0.54852 -2.37727 4.37651
-0.796306 -2.17787 4.31031
-0.357303 -1.69122 4.34082
-0.585119 -2.16223 4.38527
-0.343488 -2.34709 4.4572
-0.0942363 -2.09525 4.47337
-0.565829 -1.96175 4.45355
0.00182969 -1.9165 4.569
-0.986811 -2.28905 4.38339
-0.209062 -1.91483 4.46414
-0.374307 -0.151376 4.75115
-0.150738 -1.74365 4.57362
-0.175543 -1.45599 4.66999
-0.241216 -0.777011 4.7008
-0.197421 -2.45836 4.79549
-0.457913 -2.45477 4.5522
-0.79437 -2.37454 4.39962
-0.29244 -1.36388 4.48296
-0.24251 -1.08601 4.85985
-0.27118 -1.18128 4.62005
-1.18842 -2.01222 4.4371
-0.806087 -1.39978 4.54866
-1.17022 -1.79157 4.48368
-0.884356 0.128867 4.93422
-0.867625 -1.61189 4.57285
-0.933656 -1.22704 4.71113
