ply
    format ascii 1.0           
    element vertex 76
    property double x           
    property double y           
    property double z           
    end_header
-0.737488 2.06832 7.48474
-0.7128 1.61123 7.02502
-1.09154 2.07444 7.42569
-1.76168 0.266768 6.56053
0.0603158 0.0139475 6.09087
-0.497174 0.769017 6.18253
-0.384415 0.073825 6.05899
-0.468646 1.74591 7.4282
0.307124 0.199302 6.35972
-0.819139 0.838205 6.29331
-1.2198 -0.283521 6.04655
-0.381627 0.453097 6.09105
-0.621288 -0.767827 6.1455
-0.821321 -0.00165879 6.02652
-0.562947 1.3048 6.86402
-0.0435931 0.741181 6.94161
0.139514 -0.306736 6.01972
0.288316 0.464779 6.74199
-1.41028 1.76388 7.5797
-1.49468 0.0423087 6.27269
-1.21466 0.798995 6.67937
-0.299478 0.742896 6.59188
0.598341 -0.05504 6.45772
-0.910148 1.29927 6.96434
-0.874518 -0.358754 5.99514
-1.07214 1.61496 7.1271
-1.14936 0.0579283 6.17638
0.578045 0.284567 6.55907
-0.990675 0.54524 6.3298
-1.12539 2.32156 7.71559
-0.919721 -0.699855 5.97809
0.399263 -0.475601 6.40808
-0.845407 0.25495 6.2561
0.314238 -0.146903 6.32578
-0.0822958 0.24153 6.3177
-1.43615 0.360112 6.68097
-1.49906 -0.493578 6.16737
-1.2361 -0.635543 6.00213
-1.2182 1.30439 7.12955
-0.560051 -0.245018 6.15338
-0.211918 -0.256023 6.11704
-1.71179 -0.255344 6.34917
-0.21366 0.46812 6.91727
0.107113 -0.577803 6.17779
-0.5081 0.262383 6.32346
-1.42415 0.658794 6.96934
-1.1375 -1.10857 6.62723
-1.39734 1.1372 7.41883
-1.12823 0.995962 7.00274
-0.209381 -0.638369 6.03964
-1.80778 -0.0745681 6.65394
-1.08676 0.245771 6.53498
-1.57019 -0.632155 6.53077
-0.750127 0.975201 6.84397
-1.74416 -0.39424 6.75776
-1.40514 0.485763 7.47965
-1.303 0.789258 7.30179
-1.02877 2.18439 8.30091
-1.73533 -0.068243 7.47593
-1.62203 0.180706 7.23662
-1.15846 1.46225 7.4712
-1.56147 0.185054 7.64372
-1.34428 -0.830084 6.27443
-1.58976 -0.24241 7.18327
-0.782032 -0.789105 7.85085
-1.21563 0.760179 7.72808
-1.06486 -0.999039 6.98655
-1.29203 -0.496497 7.2373
-1.47932 -0.303892 7.59926
-1.25787 -0.637413 5.98092
-0.83389 -0.801241 7.51285
-1.14456 2.31688 7.70603
-1.18466 2.59393 8.26779
-1.26302 -0.789431 6.62861
-0.179074 -0.644645 6.03693
-0.880275 -0.70717 5.9871
