ply
    format ascii 1.0           
    element vertex 79
    property double x           
    property double y           
    property double z           
    end_header
0.00748159 -0.135398 0.541939
0.0262984 -0.183901 0.608494
-0.0372265 -0.0190451 0.558604
0.0336071 -0.193389 0.581648
3.08038e-05 -0.0929389 0.578824
0.0210188 -0.192614 0.533794
-0.0063131 -0.0739162 0.540467
0.0338969 -0.137799 0.594445
0.00878795 -0.176078 0.511877
0.0315059 -0.135533 0.571251
-0.00443179 -0.0720525 0.565421
0.0231512 -0.15489 0.562091
-0.0314953 -0.0602682 0.512169
0.0329249 -0.158978 0.605295
0.0275479 -0.214468 0.557011
0.0285146 -0.216582 0.580539
0.0164055 -0.204025 0.645634
0.0245878 -0.189826 0.557385
-0.06318 0.00538344 0.51494
-0.00344939 -0.0957851 0.555379
0.0196497 -0.238949 0.580754
0.0168063 -0.228029 0.539692
0.0212243 -0.174026 0.574584
0.00266453 -0.16558 0.532025
0.0135992 -0.227847 0.626007
0.0108718 -0.212054 0.522228
-0.0117266 -0.0957529 0.53228
0.0147557 -0.202417 0.621436
-0.00433756 -0.196542 0.511414
-0.0136602 -0.141599 0.527203
-0.0334459 -0.103421 0.520617
-0.0253352 -0.253649 0.562216
0.0230362 -0.236929 0.559356
0.00248722 -0.245446 0.551721
-0.00908581 -0.2308 0.533023
-0.0179033 -0.0384799 0.530715
-0.055959 -0.183145 0.508532
-0.0378648 -0.170329 0.516409
-0.092382 -0.211836 0.567247
-0.0483112 -0.144638 0.524682
-0.0635537 -0.162884 0.517054
-0.032071 -0.018562 0.523679
-0.0319588 -0.0803498 0.532611
-0.0594222 -0.122089 0.531609
-0.0103238 -0.117749 0.543282
-0.073446 -0.0191918 0.528372
-0.0524517 -0.204517 0.540178
-0.0324059 -0.127057 0.53161
-0.0439471 -0.240678 0.560718
-0.0235654 -0.0618897 0.554592
0.0308784 -0.193822 0.581807
-0.00320735 -0.118085 0.570337
0.0335675 -0.159702 0.606014
-7.08602e-06 -0.166086 0.532059
0.0213952 -0.173513 0.57526
0.0264292 -0.184882 0.610055
0.0150505 -0.125826 0.585186
1.22506e-06 -0.0941978 0.580158
-0.00324368 -0.0727135 0.566267
0.0347796 -0.139112 0.595765
0.0244306 -0.190421 0.557821
0.0174447 -0.204748 0.647892
0.027594 -0.216679 0.581222
-0.0662936 0.00879844 0.514544
-0.0400674 -0.0143837 0.55761
0.0208981 -0.238327 0.581705
0.0114307 -0.228307 0.627825
-0.0242788 -0.0352913 0.555337
0.0200453 -0.183936 0.640171
-0.0501327 -0.00646055 0.534981
-0.00867942 -0.113589 0.599162
0.0144676 -0.202347 0.623881
-0.0134092 -0.154096 0.667616
-0.0282655 -0.0557677 0.578985
0.00381871 -0.166497 0.652659
-0.0185741 -0.143799 0.644957
0.0067759 -0.237882 0.600651
-0.0244255 -0.124201 0.618218
-0.0132675 -0.177579 0.672491
