ply
    format ascii 1.0           
    element vertex 73
    property double x           
    property double y           
    property double z           
    end_header
0.298159 -1.4958 4.61113
0.373229 -1.44546 4.72908
0.297214 -1.34058 4.50528
-0.0354183 -0.358603 4.5129
0.235603 -1.20504 4.50107
0.149735 -1.15488 4.39892
0.0336631 -0.702903 4.55521
-0.00684162 -0.493415 4.57966
0.231714 -1.0655 4.4928
0.205716 -1.45143 4.5063
-0.163778 -1.51361 4.65664
0.12578 -1.29642 4.45086
-0.127133 -0.537161 4.52653
-0.172875 -0.341711 4.47242
-0.178116 -0.121901 4.54671
0.00614387 -1.20658 4.42972
-0.156751 -1.38336 4.61728
-0.0600205 -1.30922 4.53092
-0.0573088 -0.803044 4.51785
-0.103961 -0.672726 4.53114
-0.241325 -0.676679 4.5466
-0.255609 -0.533 4.54275
0.0945219 -1.02967 4.42901
0.0815079 -1.40136 4.56187
-0.32544 -0.144834 4.58202
-0.256353 -0.320516 4.59072
-0.183709 -1.06971 4.53967
-0.173801 -0.931343 4.54929
0.088297 -0.723222 4.67566
-0.236956 -1.21162 4.66008
-0.0373015 -1.07221 4.46469
-0.152836 -1.19632 4.54038
-0.318226 -1.4506 4.80287
0.40222 -1.20483 4.80876
-0.0180326 -1.47932 4.67409
-0.183799 -0.803363 4.56751
0.0509441 -0.593638 4.63492
0.166663 -0.874602 4.6167
-0.28242 -0.900353 4.65881
0.400579 -1.35664 4.836
-0.273436 -1.03452 4.63598
0.00576473 -0.239058 4.59676
-0.303117 -0.761511 4.67643
0.0220415 -0.378671 4.66125
-0.125606 -0.243113 4.54936
-0.273009 -1.34607 4.86389
-0.0752713 -0.148561 4.67081
0.0542068 -0.901406 4.54303
-0.3651 -1.53706 4.88103
-0.320805 -0.416774 4.66989
0.0572912 -0.815846 4.61395
0.36107 -1.12453 4.94087
0.137646 -0.980812 4.53645
0.226786 -0.986461 4.63933
0.313219 -1.28427 4.73399
0.0933966 -0.717631 4.7055
0.286437 -1.11661 4.81909
0.262833 -1.15065 4.67397
0.324197 -1.36145 4.63102
-0.0129706 -0.260802 4.74112
0.0391064 -0.5927 4.7738
0.408166 -1.2591 4.95025
0.0882218 -0.845761 4.86869
0.346234 -1.48615 4.86472
0.0456594 -0.719705 4.84136
-0.0516268 -0.461517 4.86494
-0.0817278 -0.324236 4.85184
-0.0127932 -0.481516 4.72739
0.1617 -0.929931 4.78316
0.120594 -0.847667 4.71348
0.32025 -1.38561 4.97611
-0.0687655 -0.621281 4.88581
-0.0356796 -1.09492 5.07533
