ply
    format ascii 1.0           
    element vertex 75
    property double x           
    property double y           
    property double z           
    end_header
-1.33777 0.115409 9.91352
-0.844217 -2.50085 8.4631
-1.49896 -1.49258 8.76981
-1.56418 -2.36711 8.25544
-1.42719 -2.13146 8.41117
-1.46957 -0.758367 9.2507
-1.56367 -2.64084 7.86845
-1.46394 -0.3041 9.53063
-1.08175 -0.912792 9.37555
-1.24742 -2.65111 8.06469
-1.71914 -2.94812 7.75305
-1.24294 -2.45477 8.3987
-1.20906 -0.574068 9.49925
-1.38187 -1.87627 8.61631
-1.85919 -0.821052 9.28422
-2.15661 -3.52382 8.30492
-0.681321 -2.32725 8.7683
-1.81773 -2.18774 8.42856
-1.41723 -1.07799 9.13176
-1.13532 -3.03545 8.13248
-1.03953 -1.56087 9.13473
-2.12134 -2.28616 8.48008
-1.33945 -3.19942 7.92808
-1.20629 -1.69551 8.85132
-1.04964 -2.25256 8.65149
-1.74212 -0.2543 9.73917
-1.88959 -1.16312 9.38165
-1.89767 -1.85093 8.80107
-1.62435 -3.25317 8.02297
-1.79136 -1.52632 8.97289
-1.87206 -2.51004 8.31638
-1.69441 -0.584978 9.53766
-1.65209 -2.01772 8.65488
-1.89371 -3.32204 8.20558
-1.95195 -3.7264 8.50761
-1.61845 -1.35519 9.18335
-2.37979 -3.34304 8.53944
-2.21213 -3.10564 8.37471
-1.87254 -2.74936 8.05242
-2.04177 -2.17505 8.68862
-1.95717 -1.45645 9.25331
-1.91053 -3.07188 7.99318
-0.759418 -3.23509 8.4322
-1.06566 -1.93166 8.62178
-0.851908 -1.96168 8.89667
-1.14178 -1.24802 9.30602
-1.33762 -0.102065 10.2643
-0.69099 -2.71755 8.76182
-0.727036 -3.63447 8.62724
-0.688007 -3.14414 8.78195
-1.06011 -0.53457 9.84346
-0.517599 -3.43716 8.76203
-1.23626 -2.9121 7.80951
-1.02152 -2.72442 8.47634
-1.00769 -1.38597 9.65949
-1.18349 -1.63368 9.88341
-0.931874 -1.87389 9.27994
-1.41448 -1.08964 9.13477
-1.31288 -1.36815 9.04114
-1.86473 -0.822539 9.32139
-1.89549 -1.86452 8.81848
-1.29613 -3.23334 7.99937
-1.6809 -0.599595 9.54542
-1.53815 -0.168177 9.93842
-2.14723 -3.54393 8.33038
-1.81084 -2.20035 8.44615
-2.11628 -2.30132 8.51845
-1.88756 -1.14826 9.39371
-1.85799 -2.52289 8.34158
-1.64887 -2.02181 8.67048
-1.62338 -1.3518 9.19699
-1.75187 -0.263527 9.75264
-1.78087 -1.52671 8.9735
-1.86821 -2.74975 8.08002
-2.19923 -3.12553 8.4113
