ply
    format ascii 1.0           
    element vertex 66
    property double x           
    property double y           
    property double z           
    end_header
-0.421884 0.125519 3.11114
-0.175753 -0.592018 2.57658
-0.0162575 -0.44253 2.68331
0.047196 -0.521688 2.64546
-0.203298 -0.231456 2.93479
-0.167312 -0.483061 2.62073
-0.455239 -0.0496003 2.96594
-0.124967 -0.376528 2.81266
-0.401245 -0.583699 2.58076
-0.0109642 -0.628895 2.58572
-0.208544 -0.352478 2.74357
-0.27861 -0.162183 2.94103
-0.240378 -0.693261 2.56779
-0.125658 -0.420171 2.70642
-0.357175 0.0619147 3.16218
-0.0824109 -0.552299 2.63123
-0.477594 0.0747686 3.06699
-0.249315 -0.416948 2.66577
-0.308447 -0.321331 2.77605
0.0292218 -0.74805 2.70413
-0.428502 -0.213863 2.94205
-0.530492 0.142835 3.09841
-0.270936 -0.535405 2.62132
-0.386173 -0.283402 2.83668
-0.487537 -0.153105 2.99039
-0.441772 -0.440235 2.77234
-0.556756 0.025442 3.11161
-0.314688 -0.761537 2.60709
-0.383291 -0.519909 2.70901
-0.344423 -0.209853 2.88865
-0.47596 -0.665765 2.76938
-0.384931 -0.382214 2.83835
-0.327313 -0.425259 2.72967
-0.590906 -0.0763087 3.14586
-0.565469 -0.162581 3.07864
-0.502396 -0.26373 3.00164
-0.327615 -0.0404202 3.1284
-0.322778 -0.0849232 2.97182
-0.49158 -0.520871 2.64964
-0.521553 -0.0632909 3.02267
-0.495343 -0.392311 2.82017
-0.294755 -0.279397 2.79231
-0.251967 -0.154347 2.96092
-0.332503 -0.353537 2.71605
-0.512354 0.021186 3.02025
-0.0910542 -0.370187 2.72416
-0.0377924 -0.665793 2.72254
-0.186796 -0.301257 2.84613
-0.0160271 -0.563143 2.70766
0.0380376 -0.475888 2.76555
-0.0250319 -0.372031 2.80766
-0.421936 0.163858 3.24795
-0.500465 0.211701 3.24036
-0.240331 -0.255619 2.9155
0.0170073 -0.62815 2.82174
-0.346752 -0.0106678 3.05615
-0.530747 0.200198 3.1761
-0.25164 -0.0801858 3.07242
-0.167568 -0.33818 2.95205
-0.079053 -0.413269 2.94855
-0.281699 -0.136208 3.25712
-0.352606 -0.226438 2.92026
-0.45946 -0.221511 2.88968
-0.211309 -0.222108 3.11052
-0.339792 -0.382268 3.22429
-0.166028 -0.245103 3.00843
