ply
    format ascii 1.0           
    element vertex 79
    property double x           
    property double y           
    property double z           
    end_header
-0.154897 -0.488611 2.69891
-0.298656 -0.280142 2.57991
-0.329358 -0.135417 2.45072
-0.120507 -0.51451 2.57946
-0.22832 0.609952 2.77431
-0.0736072 -0.533417 2.88919
-0.389447 0.0680954 2.46698
-0.401084 -0.0491013 2.51118
-0.311693 -0.152158 2.57428
-0.197552 0.536068 2.8796
0.0168624 -0.564116 2.4374
-0.169292 -0.464662 2.83204
-0.186912 -0.312042 2.67688
-0.0841347 -0.629389 2.63638
-0.00805264 -0.441359 2.44627
-0.181083 0.643315 2.65462
-0.336234 -0.017353 2.39297
0.0619586 -0.342161 2.25473
-0.0175249 -0.644434 2.52434
-0.201037 0.389866 2.71488
-0.311769 -0.015644 2.70159
-0.184924 -0.331717 2.54319
0.0762594 -0.531791 2.3391
-0.103367 0.479134 2.6016
-0.0823896 -0.409634 2.53262
0.107465 -0.447155 2.24824
-0.116776 -0.377525 2.75916
-0.160391 -0.296146 2.42247
-0.234468 -0.21957 2.4831
-0.195073 0.733823 2.75309
0.179693 -0.553079 2.30468
-0.0371937 -0.312685 2.43838
0.0245211 -0.0804363 2.34658
0.0508824 -0.376763 2.3758
0.0952665 -0.643723 2.48983
0.113298 -0.192008 2.30887
-0.179758 -0.127885 2.40868
0.231185 -0.619983 2.42994
0.170521 -0.343428 2.22218
0.143377 -0.567568 2.41975
0.0223317 0.0306627 2.39623
0.0115424 -0.157243 2.42725
-0.087148 0.32752 2.52984
0.214556 -0.442084 2.23964
-0.205424 -0.0084974 2.4307
-0.101947 -0.205213 2.47433
-0.0712922 -0.0580734 2.42405
-0.0747849 0.209177 2.50791
-0.127461 0.350124 2.63274
-0.279857 0.0877203 2.44439
-0.175928 0.508045 2.7045
-0.0794194 0.709372 2.69144
0.0280275 0.294173 2.54855
0.0451492 0.697318 2.71409
-0.0753778 0.0844478 2.53283
-0.158746 0.242318 2.59413
-0.203316 0.882132 2.78566
-0.0295049 0.923866 2.75945
-0.108493 0.835209 2.73105
0.0336989 0.165269 2.56687
-0.178281 0.140703 2.54592
0.135556 0.00615193 2.44624
0.00145847 0.81303 2.75364
0.161991 0.160274 2.58999
0.418432 -0.168198 2.64861
-0.067072 0.56797 2.65784
-0.0199686 0.400754 2.60282
0.285525 -0.380508 2.32984
-0.110794 0.467245 2.59491
0.125108 -0.108436 2.42039
0.221326 -0.27983 2.32278
-0.150259 -0.480893 2.70149
-0.202407 0.391289 2.71021
0.100744 -0.289032 2.36542
-0.19635 0.726294 2.75111
0.0527987 0.0699829 2.49823
-0.225317 0.603503 2.7745
-0.222784 0.152661 2.66802
0.0472351 -0.379638 2.3619
