ply
    format ascii 1.0           
    element vertex 89
    property double x           
    property double y           
    property double z           
    end_header
-0.257684 -0.329001 0.81766
-0.157878 -0.325041 0.830687
-0.237666 -0.402996 0.794324
-0.262523 -0.0779186 1.05975
-0.3334 -0.40741 0.842002
-0.31533 -0.26646 0.816001
-0.11944 -0.370565 0.80278
-0.230515 -0.14349 1.01249
-0.324643 -0.325277 0.816296
-0.213967 -0.228201 0.934306
-0.136858 -0.414869 0.747153
-0.291563 -0.374038 0.822812
-0.217265 -0.185659 0.961885
-0.154508 -0.502909 0.743464
-0.19975 -0.476527 0.79269
-0.223242 -0.564946 0.783611
-0.242166 -0.470705 0.822595
-0.26756 -0.514112 0.816607
-0.194223 -0.524605 0.767998
-0.272134 -0.141892 1.05023
-0.364425 -0.290646 0.846762
-0.288626 -0.183578 1.0274
-0.282721 -0.432736 0.831128
-0.296088 -0.519631 0.865705
-0.164021 -0.446183 0.783926
-0.263246 -0.571784 0.82188
-0.260299 -0.222212 0.962025
-0.171917 -0.572626 0.78353
-0.300927 -0.11003 1.0868
-0.247598 -0.192238 0.997233
-0.139275 -0.415391 0.800529
-0.300433 -0.262551 0.967149
-0.280475 -0.0120225 1.15193
-0.122195 -0.459379 0.729205
-0.316511 -0.530631 0.919142
-0.279456 -0.0611777 1.1069
-0.313851 -0.228873 1.05173
-0.286881 -0.226321 1.00374
-0.312424 -0.272469 1.01977
-0.305218 -0.0839654 1.14629
-0.304998 -0.158631 1.11332
-0.332858 -0.355702 0.863766
-0.311913 -0.537068 0.972631
-0.352356 -0.268429 0.902403
-0.332487 -0.395759 0.901254
-0.303564 -0.487577 0.95627
-0.249004 -0.58466 0.875722
-0.353681 -0.325039 0.909187
-0.309335 -0.323081 1.02782
-0.28326 -0.489133 0.9105
-0.305071 -0.375647 1.03947
-0.32569 -0.315491 0.962104
-0.321311 -0.377208 0.95251
-0.289493 -0.571764 0.935561
-0.286569 -0.498423 1.00092
-0.24402 -0.588835 0.923889
-0.29286 -0.275079 1.07267
-0.315407 -0.35592 0.994906
-0.300203 -0.446232 0.885177
-0.294596 -0.409496 0.98727
-0.343329 -0.240725 0.85373
-0.358748 -0.294683 0.848096
-0.152282 -0.501723 0.74301
-0.205666 -0.423062 0.808913
-0.104035 -0.516229 0.740337
-0.208375 -0.317378 0.849047
-0.17177 -0.569705 0.783934
-0.10724 -0.562385 0.782835
-0.138884 -0.534143 0.776023
-0.0863285 -0.41997 0.747746
-0.230351 -0.141376 1.01391
-0.21074 -0.231724 0.932487
-0.178739 -0.367616 0.843698
-0.253101 -0.331834 0.818857
-0.215095 -0.186852 0.963388
-0.0749313 -0.467163 0.740895
-0.262809 -0.285563 0.845803
-0.222281 -0.0730243 1.09473
-0.16041 -0.28887 0.874828
-0.171791 -0.215918 0.977856
-0.204523 -0.00861584 1.17984
-0.176361 -0.0958993 1.12361
-0.2912 -0.240782 0.858598
-0.231983 -0.37995 0.828689
-0.220011 -0.282764 0.916283
-0.264215 -0.569101 0.824575
-0.194103 -0.0545943 1.15596
-0.245839 -0.192087 0.989392
-0.287604 -0.185183 1.02254
