ply
    format ascii 1.0           
    element vertex 69
    property double x           
    property double y           
    property double z           
    end_header
-0.296278 -0.374732 1.2372
-0.288266 0.0489711 1.39625
-0.276965 -0.281316 1.26642
-0.24538 -0.381159 1.24812
-0.169894 -0.275431 1.32321
-0.21579 -0.188839 1.3215
-0.266243 0.13319 1.43496
-0.237717 -0.318652 1.27104
-0.117282 -0.361273 1.35843
-0.200598 -0.41687 1.27539
-0.192736 -0.360389 1.26972
-0.207278 -0.238379 1.30896
-0.256421 -0.234629 1.28609
-0.256698 0.00536894 1.39959
-0.250609 -0.0872734 1.37488
-0.431304 -0.291548 1.27621
-0.292441 -0.0648086 1.36119
-0.188843 -0.3111 1.28927
-0.328088 -0.341631 1.25772
-0.280767 -0.119593 1.35572
-0.3596 -0.376648 1.25431
-0.342795 -0.13107 1.35069
-0.445482 -0.325567 1.2544
-0.342955 -0.0598362 1.35816
-0.301771 -0.161172 1.33126
-0.398105 -0.343193 1.26351
-0.323678 -0.262302 1.2714
-0.250761 -0.0522031 1.4121
-0.311383 -0.0232773 1.38384
-0.309895 -0.220756 1.29353
-0.393308 -0.289583 1.30314
-0.331965 0.0289578 1.41275
-0.279814 -0.344928 1.27031
-0.324322 -0.303399 1.28389
-0.364838 -0.321618 1.2806
-0.26485 -0.19385 1.31537
-0.28029 -0.42874 1.30276
-0.354178 -0.24395 1.30587
-0.232138 -0.279606 1.30511
-0.341208 -0.196437 1.33611
-0.333725 -0.433936 1.32001
-0.452961 -0.36485 1.28282
-0.34656 -0.102973 1.38763
-0.411734 -0.375654 1.31374
-0.372242 -0.227469 1.33627
-0.309505 0.0987389 1.43458
-0.16618 -0.226434 1.33952
-0.248129 -0.165115 1.34981
-0.163892 -0.389528 1.30286
-0.133016 -0.239845 1.37667
-0.134885 -0.412403 1.34051
-0.101092 -0.322857 1.4239
-0.167847 -0.200616 1.3857
-0.164403 -0.325353 1.3392
-0.131712 -0.320292 1.38171
-0.165045 -0.369287 1.34553
-0.188463 -0.309863 1.289
-0.221497 -0.177263 1.41786
-0.139908 -0.29485 1.41686
-0.245479 -0.144456 1.39092
-0.127611 -0.29923 1.46021
-0.271079 0.0969087 1.4822
-0.397548 -0.341984 1.26346
-0.430415 -0.294136 1.27514
-0.443055 -0.32604 1.25258
-0.340787 -0.196631 1.33841
-0.352953 -0.243143 1.30425
-0.332769 0.0300318 1.41459
-0.393577 -0.28976 1.30528
