ply
    format ascii 1.0           
    element vertex 74
    property double x           
    property double y           
    property double z           
    end_header
0.757763 3.95026 7.81581
0.185218 1.77378 6.46841
0.404759 1.58711 6.24031
-0.0065354 1.11971 6.0747
0.112674 0.775613 5.53861
-0.0606795 0.68714 5.81949
0.153745 -0.119102 5.46958
-0.248395 -0.394699 5.86319
0.430225 2.36026 6.81092
0.459658 1.2163 5.94649
0.632279 2.15917 6.53186
-0.157898 -0.061415 5.70622
0.364589 2.6499 7.03069
0.446309 0.253027 5.34077
0.0418991 0.356115 5.74801
0.784218 0.178831 5.21476
0.689617 0.459487 5.44651
0.426955 3.55701 7.4046
-0.128783 0.172334 6.00109
0.497859 1.87104 6.39769
0.714014 1.70048 6.23213
0.259299 1.30222 6.2116
0.234496 0.937547 5.83756
0.663835 3.028 7.19868
0.445925 -0.0818652 5.27726
0.276046 0.512202 5.52177
0.358183 2.02834 6.60737
0.884397 2.01868 6.52543
0.430032 0.775354 5.59873
0.667398 1.38498 6.11592
0.782504 -0.151257 5.30568
0.321484 -0.421199 5.54351
0.653591 2.69932 7.03601
0.994479 3.78987 7.80903
0.719069 1.03788 6.05226
0.705153 3.66971 7.53317
1.18971 0.400562 5.47201
0.605794 -0.350036 5.53276
-0.012107 -0.450956 5.57135
1.00387 0.250025 5.39518
0.881641 1.21954 6.33229
0.209202 -0.676615 5.78725
1.02555 2.26865 7.0825
1.08175 0.00803698 5.49819
0.833412 3.15732 7.45647
0.810439 2.28318 6.82687
1.28247 0.187269 5.69404
0.871842 0.925784 6.42517
0.584382 0.722167 5.82983
0.786913 3.40051 7.33246
0.910801 3.59651 7.94898
1.00189 1.94048 6.76294
0.893528 -0.232674 5.6892
0.947763 1.50912 6.335
0.963731 2.77341 7.19484
0.618712 2.15528 6.50292
0.501406 1.86987 6.39227
0.185484 1.7646 6.4594
0.217531 -0.686318 5.77748
-0.233225 -0.397005 5.8664
-0.489156 -0.543598 6.07653
0.265105 1.30137 6.21302
0.270878 2.31561 7.06448
0.432799 2.34554 6.80197
-0.537556 -0.279535 6.12712
0.0903383 1.46652 6.58896
-0.0464731 0.700626 5.84219
-0.154065 0.159217 5.97181
-0.296041 0.291261 6.29989
-0.205802 -0.674275 6.089
-0.110701 0.503745 6.08034
0.350564 0.265001 5.67311
0.0990628 1.73242 6.86673
-0.240402 -0.157852 6.18327
