ply
    format ascii 1.0           
    element vertex 90
    property double x           
    property double y           
    property double z           
    end_header
-0.00655031 -0.0267882 1.18779
0.0877169 -0.419284 0.998235
0.0123642 -0.418712 0.978957
-0.0212797 -0.26794 1.03054
0.0056115 -0.0998465 1.11176
0.0330092 -0.373781 1.00145
-0.0146546 -0.164638 1.08704
-0.0143018 -0.199338 1.06961
-0.0207244 -0.317461 0.987513
0.00858704 -0.241013 1.05305
-0.136744 -0.368384 0.976694
0.0828637 -0.385742 1.02195
-0.009781 -0.386366 1.00197
-0.0290504 -0.228416 1.04082
-0.0764567 -0.328608 0.969193
-0.100182 -0.369805 0.989457
-0.0595013 -0.291457 0.981039
-0.169182 -0.347775 1.00315
0.011475 -0.142668 1.11216
-0.0535693 -0.187372 1.07147
0.116889 -0.40351 1.02321
-0.036001 -0.412822 0.98614
-0.0562372 -0.145739 1.08552
-0.21211 -0.363236 1.0033
-0.106638 -0.434564 0.979445
-0.018934 -0.445676 0.986597
-0.0316762 -0.124033 1.11173
-0.176336 -0.383161 0.983797
0.0485674 -0.361696 1.03116
-0.0656098 -0.225557 1.05712
-0.0601711 -0.260051 1.0418
-0.112795 -0.279833 1.04718
-0.0974774 -0.248545 1.07162
-0.0927942 -0.209035 1.08256
-0.228141 -0.346861 1.03801
-0.0237557 0.00721573 1.22939
-0.162768 -0.331425 1.03667
-0.133626 -0.40502 0.983999
-0.0407104 -0.0314729 1.21889
-0.127161 -0.338477 1.00539
-0.0934865 -0.303765 1.00184
-0.0665324 -0.10907 1.13135
-0.195898 -0.334333 1.02767
-0.0272949 -0.0885645 1.13491
-0.0528193 -0.0778442 1.17024
-0.139096 -0.439108 1.00285
-0.206077 -0.405825 1.01512
-0.1359 -0.311589 1.06058
-0.134416 -0.278891 1.08635
-0.0886338 -0.176757 1.10389
-0.117232 -0.250775 1.11538
-0.229602 -0.383792 1.04611
-0.108467 -0.212384 1.11566
-0.170291 -0.418528 0.999164
-0.0642763 -0.442677 0.991093
-0.0415563 -0.358402 0.990382
-0.0926037 -0.47855 1.03469
-0.0975758 -0.40176 0.966338
0.0487842 -0.409232 1.001
-0.0545988 -0.146887 1.08553
0.013196 -0.421292 0.98397
-0.0703126 -0.401798 0.99102
-0.014248 -0.164244 1.09056
-0.0782737 -0.330729 0.972677
-0.031002 -0.124003 1.10972
0.0237164 -0.302638 1.08678
0.0247197 -0.203159 1.14341
0.00864418 -0.266943 1.07361
0.052213 -0.363673 1.03432
0.0101497 -0.335231 1.05971
-0.00667474 -0.298113 1.05576
-0.0420451 -0.305348 1.02187
0.0246041 -0.0595178 1.21517
-0.0123571 -0.33789 1.02355
0.00430982 -0.200027 1.10509
0.119188 -0.445802 1.01967
0.00276041 -0.171074 1.13519
0.0187217 -0.0886176 1.15642
0.123229 -0.404867 1.02456
0.0209973 -0.159808 1.1689
0.0163923 -0.23257 1.08766
0.109703 -0.390252 1.05637
-0.00176496 -0.0279892 1.23214
0.0173778 -0.33563 1.10118
0.0188707 -0.272467 1.10984
0.0753648 -0.370111 1.06386
0.00578853 -0.130355 1.14596
0.0178417 -0.238221 1.12848
-0.0187954 -0.447467 0.987764
-0.0624715 -0.441903 0.988886
