ply
    format ascii 1.0           
    element vertex 95
    property double x           
    property double y           
    property double z           
    end_header
-0.689826 0.328787 4.66937
-1.15515 -1.35347 4.52035
-0.558905 -1.46938 4.30563
-0.996456 -1.47751 4.45199
-0.695269 -0.0652457 4.45081
-0.755041 -0.841866 4.38624
-0.41897 -1.38574 4.29138
-0.276954 -1.40997 4.22108
-0.734477 -1.45934 4.40799
-0.641273 -1.32651 4.38973
-0.739567 -0.356045 4.47719
-0.28938 -1.2549 4.27893
-0.986451 -1.18448 4.34927
-0.736553 -0.5196 4.44148
-0.131371 -1.30507 4.23892
-0.50724 -1.26047 4.29217
-0.822715 -1.57661 4.4795
-1.00282 -1.32082 4.49729
-1.26363 -1.41836 4.6474
-0.80591 -0.678673 4.40003
-0.781779 -1.08953 4.29118
-1.3791 -1.33503 4.7578
-0.914952 -0.65464 4.52351
-1.24363 -1.25387 4.65352
-0.884533 -0.488227 4.51377
-0.63256 -0.231793 4.48337
-0.717714 0.509809 4.80837
-1.10181 -1.19394 4.58071
-1.04199 -0.897739 4.63934
-0.858195 -1.43105 4.47352
-0.948323 -1.0178 4.31228
-0.402076 -1.16642 4.35736
-0.804105 -1.25215 4.3762
-0.882662 -0.811148 4.49887
-0.762964 0.335557 4.83916
-0.63775 -0.694752 4.38229
-0.908982 -0.310064 4.52825
-0.80313 -0.175507 4.55079
-0.914774 -0.10161 4.66944
-0.790913 -0.00608914 4.58194
-1.3125 -1.17227 4.7956
-0.637598 -1.58117 4.41434
-0.499726 0.236436 4.73217
-0.976572 -1.58751 4.54464
-0.990971 -0.568816 4.64362
-1.08874 -1.47863 4.58574
-1.29464 -1.47053 4.8377
-1.0219 -1.05299 4.46718
-1.39878 -1.2234 4.90506
-1.06514 -0.850509 4.80787
-0.978478 -0.738786 4.66145
-1.19368 -1.13407 4.73321
-1.18025 -1.52195 4.72373
-1.07069 -1.01403 4.76491
-1.04761 -1.58074 4.69124
-0.840258 0.0805893 4.7455
-0.588424 0.0433975 4.56392
-0.472018 -0.41871 4.62998
-0.635736 -0.920289 4.48577
-0.536911 -1.05185 4.51117
-0.144338 -1.21894 4.37217
-0.472975 -0.882535 4.54254
-0.267798 -1.14875 4.43267
-0.615616 -0.468262 4.53575
-0.810264 -1.01045 4.45698
-0.574405 -0.611468 4.49704
-0.665723 -1.11633 4.41668
-0.491791 -0.214137 4.69773
-0.477688 -1.54468 4.44188
-0.598052 0.388002 4.79422
-0.446385 -0.993326 4.65375
-0.133143 -1.47108 4.29105
-0.84659 0.0845806 4.74263
-0.883694 -0.818996 4.49771
-1.03717 -0.91214 4.63942
-0.501876 0.250002 4.72161
-1.39792 -1.24087 4.87817
-0.791005 0.00165104 4.58843
-0.916917 -0.10236 4.6864
-0.793475 -1.574 4.50493
-1.25782 -1.4164 4.6353
-0.907783 -0.665283 4.5393
-1.09499 -1.19914 4.58111
-0.9767 -0.746792 4.66094
-1.18655 -1.14218 4.72435
-1.30967 -1.19043 4.78465
-0.768136 0.354102 4.84556
-1.27859 -1.15496 4.93068
-1.05961 -1.03259 4.75471
-1.00821 -1.06002 4.48666
-1.06273 -0.871589 4.7947
-0.991519 -0.568871 4.64981
-0.939784 -0.275936 4.69402
-0.728769 0.537715 4.80138
-0.697582 0.119245 4.67306
