ply
    format ascii 1.0           
    element vertex 81
    property double x           
    property double y           
    property double z           
    end_header
0.609538 1.45938 3.51659
-0.0355778 0.156051 2.94485
0.658053 1.15029 3.31269
0.41135 0.426035 2.96258
-0.16147 0.250989 2.9744
0.229884 0.0439953 2.95363
0.202617 0.543814 3.14857
0.109621 0.185464 2.94007
0.601102 -0.0456797 3.08636
0.542963 1.60807 3.63315
0.338518 0.293485 2.93632
0.514574 0.680019 3.14065
0.431311 0.000477003 3.06493
0.384604 0.723462 3.17517
-0.00256515 0.292717 2.99155
0.396612 0.584214 3.14688
0.141535 0.310158 3.03279
0.227465 0.180316 3.00496
0.278239 0.409754 3.03152
0.438966 0.856122 3.19716
-0.103375 0.365573 3.04836
0.530822 0.536002 3.13207
0.318051 -0.0961863 3.08119
0.435205 0.199064 3.04102
0.520918 0.332466 3.01317
0.397582 1.17246 3.36069
0.834205 0.0865032 3.22138
0.631446 0.634101 3.20925
0.102786 0.445459 3.17775
0.955864 0.0123708 3.25947
0.541958 1.22226 3.36763
-0.168678 0.107295 3.03983
-0.226019 0.337842 3.06957
0.316117 0.0535627 3.04797
0.262705 0.660648 3.21632
0.306359 0.928502 3.27091
0.564235 0.800643 3.23008
0.288959 0.803692 3.23501
0.523378 0.0986201 3.11939
0.524161 1.09035 3.30937
-0.25697 0.217017 3.10257
0.112334 0.58127 3.26161
0.176086 0.688417 3.33208
0.665669 1.01248 3.34481
0.690727 1.36465 3.63941
0.00799379 0.365162 3.10782
0.444801 1.003 3.22555
0.678266 0.130211 3.12511
0.448157 1.30349 3.44738
0.714769 -0.000827405 3.15273
0.692707 1.22046 3.45012
0.479928 1.49314 3.5824
0.576062 0.930674 3.27197
0.584062 0.324438 3.30284
0.640173 0.44609 3.37203
0.920831 -0.126322 3.27229
0.188141 -0.0638362 3.00484
0.844431 -0.0480143 3.17153
0.665395 0.833231 3.49656
0.712028 -0.111693 3.22896
0.549512 0.446958 3.2517
0.605599 0.561908 3.3025
0.614749 0.820944 3.36031
0.578211 -0.128975 3.2001
0.683742 1.22044 3.46087
0.529385 0.285163 3.16206
0.662111 1.00543 3.55388
0.619497 0.573893 3.44418
0.483955 -0.119172 3.093
0.53812 0.751213 3.56133
0.63092 0.686993 3.33428
0.614333 0.941124 3.44121
0.957684 0.0195736 3.25723
0.8669 -0.0430186 3.42043
0.556596 0.469822 3.50444
0.733563 0.19295 3.23518
0.577514 0.794988 3.22029
0.891043 0.0909978 3.36876
0.584319 1.50623 3.67704
0.634639 1.08584 3.44058
0.585448 0.312926 3.30035
