ply
    format ascii 1.0           
    element vertex 81
    property double x           
    property double y           
    property double z           
    end_header
-0.348153 -0.228267 1.37494
-0.315698 -0.27561 1.38434
-0.458403 -0.571064 1.04481
-0.457002 -0.614207 1.0164
-0.344376 -0.605168 1.10452
-0.575535 -0.608761 1.03298
-0.364089 -0.268421 1.33317
-0.404256 -0.630577 1.07511
-0.366393 -0.485234 1.10669
-0.297259 -0.632556 1.15764
-0.35162 -0.54285 1.10373
-0.460523 -0.509652 1.09011
-0.37362 -0.697431 1.08132
-0.335827 -0.360442 1.28592
-0.380573 -0.407225 1.19171
-0.322158 -0.505373 1.13481
-0.400209 -0.219956 1.34435
-0.34165 -0.451642 1.14919
-0.408214 -0.534168 1.09325
-0.329131 -0.3246 1.33211
-0.373762 -0.315428 1.29843
-0.418033 -0.585397 1.07383
-0.440399 -0.658583 1.02837
-0.426586 -0.309773 1.29584
-0.326917 -0.660174 1.11033
-0.521876 -0.566671 1.04616
-0.507475 -0.61547 1.0337
-0.598543 -0.565429 1.06047
-0.537677 -0.488609 1.12832
-0.484143 -0.476084 1.1245
-0.429175 -0.274389 1.33583
-0.467454 -0.699141 1.05518
-0.506661 -0.537816 1.08462
-0.414058 -0.362541 1.28155
-0.543532 -0.650676 1.03763
-0.436336 -0.409317 1.21473
-0.321653 -0.58493 1.20361
-0.490157 -0.661469 1.03493
-0.432335 -0.455946 1.17723
-0.456617 -0.364991 1.30882
-0.557925 -0.547353 1.07847
-0.618311 -0.611252 1.07637
-0.434773 -0.494264 1.13123
-0.642292 -0.581781 1.11825
-0.394565 -0.47037 1.14726
-0.479017 -0.462408 1.2062
-0.380744 -0.397596 1.2447
-0.390765 -0.197598 1.39889
-0.361559 -0.183014 1.45788
-0.340213 -0.21092 1.43016
-0.343763 -0.456759 1.14866
-0.42087 -0.584548 1.0745
-0.298696 -0.62886 1.15049
-0.273991 -0.619336 1.20943
-0.373027 -0.690969 1.07879
-0.32702 -0.327855 1.33576
-0.331994 -0.436967 1.2163
-0.312068 -0.482078 1.18563
-0.328084 -0.415601 1.26498
-0.294199 -0.573497 1.23662
-0.323985 -0.574532 1.14362
-0.31253 -0.502334 1.28374
-0.308673 -0.448535 1.3037
-0.316266 -0.53553 1.1777
-0.299604 -0.723272 1.17527
-0.290388 -0.671384 1.18775
-0.331594 -0.387654 1.34241
-0.291435 -0.75446 1.22944
-0.280453 -0.709071 1.22505
-0.321696 -0.531385 1.228
-0.413898 -0.62149 1.04907
-0.352195 -0.483695 1.24183
-0.305727 -0.582257 1.1942
-0.307747 -0.676295 1.24555
-0.334787 -0.695562 1.13132
-0.316092 -0.559232 1.27892
-0.311635 -0.622154 1.24949
-0.333801 -0.716188 1.26587
-0.452112 -0.608014 1.01703
-0.438456 -0.647345 1.02942
-0.327464 -0.757372 1.19871
