ply
    format ascii 1.0           
    element vertex 77
    property double x           
    property double y           
    property double z           
    end_header
-0.164197 -0.517664 1.93883
-0.184806 -0.43664 1.89407
-0.0922375 -0.100928 1.81143
-0.154247 -0.313006 1.8663
-0.22959 -0.777103 1.915
-0.207598 -0.248621 1.85529
-0.273052 -0.684883 1.92854
-0.344695 -0.592589 1.95569
-0.371016 -0.726471 1.93605
-0.214047 -0.838332 1.94098
-0.239637 -0.444946 1.89744
-0.261667 -0.627504 1.92351
-0.397204 -0.794883 1.97203
-0.224237 -0.658163 1.94787
-0.209827 -0.307492 1.86086
-0.322494 -0.543838 1.94478
-0.239588 -0.518655 1.9129
-0.128501 -0.148551 1.8215
-0.257462 -0.369083 1.90734
-0.3108 -0.733105 1.9494
-0.308232 -0.63951 1.95347
-0.162032 -0.108917 1.8286
-0.297463 -0.45632 1.91705
-0.259353 -0.822479 1.91869
-0.276702 -0.411643 1.89662
-0.176888 -0.358139 1.89736
-0.298247 -0.807697 1.94505
-0.46172 -0.77661 2.04243
-0.115599 -0.064567 1.84575
-0.202708 -0.540074 1.93057
-0.219141 -0.396107 1.89876
-0.214725 -0.58703 1.93818
-0.0831558 -0.14998 1.83558
-0.335623 -0.686727 1.9504
-0.272622 -0.547988 1.93945
-0.27495 -0.603567 1.972
-0.306209 -0.496097 1.94549
-0.302717 -0.857562 1.95673
-0.162898 -0.210984 1.874
-0.213933 -0.217394 1.88284
-0.249888 -0.321592 1.90689
-0.267899 -0.768442 1.95052
-0.274584 -0.889765 2.00512
-0.251098 -0.483209 1.92933
-0.352138 -0.763734 1.97415
-0.163013 -0.415254 1.93782
-0.258548 -0.728242 1.9749
-0.20608 -0.79933 1.95647
-0.373517 -0.694164 1.97966
-0.346574 -0.648005 1.98264
-0.121197 -0.183458 1.86049
-0.335234 -0.817316 1.98287
-0.41274 -0.748239 1.98165
-0.175745 -0.134792 1.9003
-0.447752 -0.819202 2.08856
-0.377362 -0.835289 1.99695
-0.194355 -0.46614 1.93493
-0.39017 -0.864549 2.03697
-0.323223 -0.896506 1.98656
-0.409622 -0.818922 2.05315
-0.139503 -0.24365 1.83587
-0.420527 -0.757732 2.02273
-0.360608 -0.624161 2.0423
-0.374493 -0.691777 1.98226
-0.347361 -0.639285 1.9955
-0.171122 -0.133619 1.88922
-0.200192 -0.212227 1.88841
-0.206413 -0.26544 1.90678
-0.336774 -0.587981 2.01305
-0.256623 -0.364002 1.90658
-0.244816 -0.339542 1.95743
-0.140287 -0.091651 1.87022
-0.258673 -0.420659 2.02693
-0.41053 -0.736955 2.15697
-0.26998 -0.406627 1.90008
-0.381932 -0.701753 2.03
-0.240002 -0.313709 1.91099
