ply
    format ascii 1.0           
    element vertex 74
    property double x           
    property double y           
    property double z           
    end_header
-0.152441 -0.501123 1.01492
-0.140413 -0.626466 0.926873
-0.170947 -0.61766 0.914207
-0.0574703 -0.329894 1.11481
-0.109809 -0.425075 1.05564
-0.119713 -0.575869 0.962366
-0.126269 -0.65624 0.899123
-0.233215 -0.670773 0.925648
-0.135284 -0.5481 0.997019
-0.0960676 -0.335533 1.11524
-0.116191 -0.527867 0.998646
-0.120001 -0.492567 1.01712
-0.185619 -0.707527 0.902648
-0.121105 -0.602599 0.943173
-0.199931 -0.640038 0.918587
-0.185353 -0.656988 0.899741
-0.0807522 -0.396388 1.07131
-0.125859 -0.681328 0.884474
-0.0996049 -0.656008 0.889209
-0.171997 -0.569235 0.975808
-0.0807165 -0.431196 1.06066
-0.162768 -0.545767 0.992445
-0.0726138 -0.350997 1.09947
-0.151148 -0.671198 0.905139
-0.0909509 -0.48826 1.02415
-0.229881 -0.702522 0.930617
-0.0880343 -0.637538 0.910433
-0.147913 -0.590738 0.963761
-0.203962 -0.69228 0.921033
-0.141708 -0.477649 1.02675
-0.13725 -0.461649 1.04709
-0.17485 -0.683467 0.900346
-0.164857 -0.647271 0.922445
-0.113465 -0.473376 1.03752
-0.158043 -0.526878 1.01211
-0.111874 -0.364305 1.13008
-0.184077 -0.617798 0.945176
-0.158898 -0.609431 0.944253
-0.0772027 -0.323528 1.13712
-0.0950952 -0.45856 1.05297
-0.176319 -0.603182 0.970732
-0.131174 -0.519354 1.01993
-0.125527 -0.423095 1.08219
-0.137953 -0.440582 1.06471
-0.11697 -0.643284 0.922068
-0.0700143 -0.379374 1.10974
-0.101457 -0.597732 0.966912
-0.196875 -0.638495 0.956003
-0.121843 -0.395167 1.09711
-0.19397 -0.611246 0.991216
-0.0949532 -0.387235 1.09323
-0.138769 -0.707296 0.879526
-0.157176 -0.501637 1.06993
-0.226387 -0.696581 0.990539
-0.162644 -0.508678 1.04416
-0.145845 -0.469 1.07312
-0.122364 -0.425216 1.11522
-0.163936 -0.552438 1.02036
-0.0960562 -0.343186 1.14148
-0.205727 -0.677888 0.994128
-0.1807 -0.586573 0.996578
-0.203901 -0.66137 0.938985
-0.200319 -0.655452 0.979232
-0.206214 -0.678655 0.964065
-0.143258 -0.485879 1.05267
-0.177448 -0.629831 0.973975
-0.159989 -0.565218 1.04407
-0.153296 -0.533479 1.03556
-0.17678 -0.682601 0.898411
-0.0817178 -0.397563 1.07361
-0.0942604 -0.490572 1.02822
-0.204116 -0.694874 0.921332
-0.120646 -0.574399 0.966128
-0.137642 -0.548244 0.989834
