ply
    format ascii 1.0           
    element vertex 77
    property double x           
    property double y           
    property double z           
    end_header
-0.953545 -0.0811861 2.29029
-0.563083 -0.336514 2.11814
-0.756645 -0.610235 2.23924
-0.998666 -0.210292 2.4155
-0.487362 1.04231 2.87713
-1.08017 -0.493058 2.56599
-1.01233 -0.564375 2.40875
-0.964006 0.0838669 2.26956
-0.821807 -0.400442 2.24068
-1.03199 -0.0148196 2.78202
-1.19168 -0.591688 2.70291
-0.828242 0.366969 2.73027
-1.115 -0.678968 2.54265
-0.481896 0.830899 2.84478
-1.01326 -0.765454 2.40839
-1.02444 0.163536 2.77615
-0.548193 -0.870743 2.23408
-0.813186 -0.181469 2.21631
-1.03336 -0.411447 2.73356
-0.950278 0.169031 2.4043
-0.984907 -0.00738973 2.46451
-0.376606 0.808985 2.67985
-0.356857 0.994761 2.74787
-0.493915 0.501371 2.59586
-0.972294 -0.291449 2.58239
-1.04231 -0.81158 2.65233
-0.818302 0.00494752 2.20474
-0.562169 -0.669919 2.18829
-0.712924 0.290546 2.59748
-0.871185 -0.475356 2.49497
-0.657468 0.425947 2.71848
-0.49381 0.304808 2.4969
-0.816835 -0.299273 2.40351
-0.62434 -0.482297 2.24165
-0.663685 -0.281741 2.25788
-0.637741 0.628354 2.75721
-0.406676 -0.44944 2.19568
-0.305071 0.562405 2.63823
-0.362668 -0.706326 2.22279
-0.205965 -0.496711 2.23436
-0.449495 -0.258862 2.24375
-0.529093 -0.155701 2.33351
-0.419462 0.12899 2.50913
-0.642533 0.221544 2.43594
-0.646689 -0.00306652 2.30829
-0.213657 0.703106 2.72819
-0.181778 -0.700373 2.32907
-0.357526 -0.908917 2.33711
-0.415779 -0.0526139 2.46339
-0.257776 0.259298 2.75172
0.0350852 -0.589772 2.46325
-0.0394419 -0.337345 2.60724
-0.76938 0.1458 2.31881
-0.212418 0.897242 2.82159
-0.063111 -0.451113 2.38753
-0.363843 0.354606 2.62068
-0.36378 -0.269446 2.38012
-0.945043 0.171071 2.41123
-0.450158 0.622214 2.73471
-0.54645 -0.878897 2.23517
-0.479841 0.826473 2.84699
-0.637472 0.629929 2.76227
-1.01287 0.16762 2.78623
-1.19113 -0.592525 2.70341
-1.11446 -0.679875 2.54378
-1.1274 -0.529604 2.87385
-0.954426 -0.081469 2.29282
-0.819022 -0.681377 2.41728
-1.02993 -0.00972681 2.78636
-0.881156 -0.469387 2.48714
-0.99037 -0.00785071 2.46514
-0.976043 -0.407071 2.91368
-0.99843 -0.10878 2.63474
-0.935799 0.0900872 2.63113
-0.747576 0.373071 2.90287
-0.815919 -0.297584 2.40638
-1.00115 -0.206699 2.42095
