ply
    format ascii 1.0           
    element vertex 76
    property double x           
    property double y           
    property double z           
    end_header
-0.34984 0.166893 2.34997
-0.319966 0.0214865 2.30833
-0.372918 -0.317634 2.24305
-0.435309 -1.05164 2.31511
-0.39803 -0.715029 2.28055
-0.121019 -0.749871 2.12267
-0.376413 -1.00221 2.24445
-0.290513 -0.589532 2.1665
-0.257127 -0.444833 2.20441
-0.265076 -0.338376 2.21463
-0.223017 -1.01433 2.16405
-0.194254 -0.813669 2.14868
-0.162198 -0.907664 2.13589
-0.275017 -0.768281 2.16735
-0.400935 -0.212056 2.27344
-0.328247 -0.410867 2.22163
-0.29072 -1.06351 2.2102
-0.356448 -0.90034 2.23454
-0.388954 -0.440585 2.28704
-0.140888 -1.00307 2.10747
-0.279613 -0.959557 2.19039
-0.104364 -0.837779 2.13127
-0.19494 -0.625631 2.18583
-0.172994 -1.08411 2.15371
-0.31977 -0.141259 2.25383
-0.291989 -0.240061 2.23616
-0.363515 -0.614737 2.24211
-0.295064 -0.82526 2.23304
-0.39187 0.0437989 2.40005
-0.373508 -0.800334 2.48027
-0.330705 -0.527934 2.2257
-0.286988 -0.686174 2.20966
-0.413158 0.134088 2.4461
-0.436806 -0.356143 2.32911
-0.407134 -0.469383 2.38701
-0.417235 -0.636982 2.36565
-0.33904 -0.835179 2.3253
-0.392554 -0.123844 2.3034
-0.404867 -0.117535 2.41669
-0.357485 -0.746686 2.39599
-0.264365 -1.08838 2.32298
-0.364519 0.0108933 2.46014
-0.377272 -0.549708 2.31343
-0.369213 -0.546701 2.42568
-0.389985 -0.934771 2.33306
-0.103427 -0.666299 2.15652
-0.26711 0.154721 2.39234
-0.232211 0.0324529 2.33898
-0.190739 -0.727078 2.17872
-0.143824 -0.493611 2.2611
-0.0960866 -0.84284 2.13297
0.0165659 -0.863622 2.19168
-0.193612 -0.2777 2.23978
-0.224806 -0.179293 2.26182
-0.0339242 -0.799694 2.15402
-0.239038 -0.0808641 2.28588
-0.170412 -0.340905 2.2944
-0.195587 -0.407142 2.25504
-0.206061 -0.545286 2.22163
-0.0804621 -0.915257 2.18722
-0.293329 0.243461 2.42328
-0.124187 -0.4204 2.32587
-0.171234 -0.100426 2.36723
-0.00517436 -0.756104 2.23329
-0.0658896 -1.01211 2.2
-0.339054 -0.0702223 2.3402
-0.386664 -0.446956 2.29022
-0.385947 0.216519 2.42778
-0.414218 -0.646677 2.36965
-0.294583 -0.823826 2.23357
-0.412356 -0.482633 2.38064
-0.340195 -0.83653 2.31273
-0.404409 -0.122379 2.42724
-0.433571 -0.992128 2.38823
-0.372497 -0.818481 2.4825
-0.376599 -0.930946 2.33614
