ply
    format ascii 1.0           
    element vertex 105
    property double x           
    property double y           
    property double z           
    end_header
-1.02094 -2.09782 4.62202
-1.1129 -1.46611 4.69131
-0.842436 -1.37167 4.51958
-0.767663 -1.58453 4.31681
-0.656745 -0.997414 4.6619
-0.915708 -1.2285 4.6052
-0.715438 -1.24039 4.51571
-0.640919 -0.51403 4.84812
-0.778309 -0.720247 4.79021
-0.525032 -0.374793 4.83622
-0.651283 -0.825882 4.69815
-0.421212 -0.245275 4.90528
-0.572643 -1.59263 4.307
-0.693501 -2.03225 4.44036
-0.981644 -1.79828 4.50597
-0.419166 -0.576857 4.79532
-0.400783 -0.0995575 5.01491
-0.190298 -2.0355 4.60989
-1.02274 -1.66774 4.6426
-0.419959 -1.66542 4.36551
-0.589681 -1.32884 4.59335
-0.802501 -2.19421 4.48463
-0.861223 -1.02618 4.76139
-0.955943 -1.50573 4.59819
-0.856616 -2.03119 4.55786
-0.489827 -0.98449 4.75618
-0.42431 -1.30389 4.67903
-0.373966 0.0393163 5.15756
-0.547981 -1.75882 4.2812
-0.490471 -1.99158 4.41679
-0.990074 -1.09261 4.85518
-0.575153 -0.682555 4.76099
-0.659998 -1.48982 4.43293
-0.584438 -0.192454 5.0122
-0.766573 -1.74705 4.37292
-0.791188 -0.893659 4.80644
-0.207475 0.163059 5.17812
-0.198166 -0.129902 4.98293
-0.32376 -0.411249 4.84692
-0.444081 -1.44306 4.56979
-0.773836 -1.12462 4.63852
-0.908704 -0.979709 4.95502
-0.819441 -1.88387 4.47186
-0.573718 -1.16514 4.66051
-0.272314 -2.19202 4.62003
-0.0637051 -0.0411091 5.09849
-0.385447 -0.927926 4.90213
-0.296117 -1.49668 4.79981
-0.316194 -1.94544 4.49318
-0.419589 -1.17313 4.83376
-0.105404 -0.234339 5.16984
-0.294864 -0.580907 4.94554
-0.394878 -2.11368 4.52056
-0.502348 -1.55577 4.45618
-0.453675 -0.747441 4.91581
-0.277442 -1.7156 5.01148
-0.764004 -0.466701 5.02078
-0.768378 -0.640044 4.92783
-0.260286 -1.94582 4.78925
-0.24355 -0.313215 4.97236
-0.456045 -1.81728 4.40233
-0.405038 -1.60334 4.70772
-0.213363 -0.450608 5.10924
-0.465233 -2.25974 4.63408
-0.380656 -0.837812 5.06294
-0.553949 -2.15571 4.40281
-0.217185 0.0528023 5.01909
-0.642344 -1.86744 4.39311
-1.0987 -2.11062 5.05174
-0.877779 -0.792647 4.93078
-1.08668 -1.61775 4.80984
-1.16346 -1.94782 4.99204
-0.872879 -1.63141 4.48446
-1.15868 -1.80426 5.10479
-0.948957 -1.39 4.7472
-0.964725 -1.25703 4.88119
-0.770175 -0.632749 4.9461
-1.05284 -1.80319 4.96741
-0.92409 -2.00734 4.75526
-0.901462 -1.18289 4.74561
-0.980129 -1.35303 5.02252
-1.01202 -1.96003 4.90189
-1.02021 -1.47782 5.20167
-0.976307 -2.12193 4.90694
-0.969682 -1.29241 5.20515
-0.591135 -0.284624 5.1779
-1.0809 -1.56987 5.42098
-1.11531 -1.62718 5.26467
-1.08065 -1.63088 5.0762
-0.9872 -1.84119 4.71334
-0.856116 -0.728982 5.10184
-1.01434 -1.52056 5.58142
-1.14935 -1.80545 5.28567
-0.924365 -1.08913 5.1045
-0.899916 -1.39125 5.51838
-1.09926 -1.96453 5.171
-0.726863 -0.888338 5.23146
-0.941606 -1.68351 5.58826
-0.99301 -2.13585 5.21378
-0.949411 -1.51127 4.87326
-0.907617 -1.48233 5.36165
-0.509914 -0.123916 5.16136
-0.88223 -2.00637 5.36207
-0.834989 -2.26229 5.24973
-0.72628 -0.714221 5.23348
