ply
    format ascii 1.0           
    element vertex 67
    property double x           
    property double y           
    property double z           
    end_header
-0.0694231 -0.348587 0.659803
-0.0683987 -0.290636 0.656354
-0.0695477 -0.232701 0.66242
-0.0215308 -0.399019 0.756679
-0.0770414 -0.165371 0.67345
-0.0523832 -0.376792 0.726532
-0.0566405 -0.307679 0.685201
-0.0625913 -0.226615 0.689031
-0.0375859 -0.423232 0.748752
-0.0518574 -0.328192 0.709489
-0.0763454 -0.366907 0.677891
-0.0967738 -0.385324 0.674866
-0.062719 -0.356808 0.705788
-0.0614715 -0.27987 0.685994
-0.0699082 -0.264585 0.659285
-0.0617927 -0.242993 0.712164
-0.0943058 -0.362755 0.655974
-0.0918198 -0.403957 0.704148
-0.103116 -0.319604 0.651995
-0.124377 -0.38598 0.662941
-0.0813646 -0.312925 0.668551
-0.117331 -0.404165 0.688675
-0.146954 -0.411793 0.687126
-0.0875496 -0.372758 0.704545
-0.0427656 -0.377909 0.756848
-0.0790702 -0.204984 0.655323
-0.154945 -0.389603 0.670309
-0.101385 -0.223644 0.660265
-0.1299 -0.320244 0.654111
-0.0936937 -0.277149 0.651749
-0.120959 -0.272372 0.654978
-0.118791 -0.24645 0.657906
-0.136432 -0.336287 0.670656
-0.0527808 -0.422003 0.718121
-0.114095 -0.344712 0.662291
-0.119955 -0.298229 0.660207
-0.141472 -0.366974 0.670584
-0.0924854 -0.250188 0.65606
-0.129619 -0.431835 0.697267
-0.101586 -0.157554 0.690729
-0.114196 -0.182616 0.68675
-0.138289 -0.283735 0.679295
-0.0967382 -0.189168 0.668146
-0.144759 -0.311434 0.674832
-0.0751536 -0.366901 0.678018
-0.0574998 -0.404028 0.739256
-0.0900722 -0.337937 0.671043
-0.0772978 -0.164918 0.674729
-0.036118 -0.423063 0.748514
-0.0505905 -0.328718 0.709661
-0.0599591 -0.280444 0.685813
-0.066569 -0.200068 0.678355
-0.07682 -0.391447 0.722153
-0.0636613 -0.338024 0.681949
-0.0415823 -0.378073 0.756836
-0.0620497 -0.356006 0.704772
-0.0663963 -0.182216 0.698664
-0.0604837 -0.227826 0.689005
-0.062424 -0.242911 0.712482
-0.0360747 -0.387645 0.782515
-0.0633894 -0.2692 0.711475
-0.0625352 -0.297758 0.710958
-0.0736944 -0.256012 0.685455
-0.0545371 -0.349588 0.730372
-0.0510296 -0.424024 0.718034
-0.0179334 -0.40683 0.779378
-0.0695163 -0.349165 0.659393
