ply
    format ascii 1.0           
    element vertex 71
    property double x           
    property double y           
    property double z           
    end_header
-0.574738 -0.598386 2.37555
-0.462437 -0.474565 2.22215
-0.235213 0.236486 2.44966
-0.523167 -0.394746 2.25055
-0.361406 -0.072808 2.3694
-0.541281 -0.486739 2.27429
-0.504686 -0.574901 2.24298
-0.262728 0.219616 2.53553
-0.272343 -0.0227736 2.35993
-0.313231 0.0932553 2.43049
-0.580872 -0.381855 2.31522
-0.325705 -0.197876 2.28073
-0.340817 -0.305899 2.26282
-0.158267 0.144035 2.45858
-0.465225 -0.662623 2.24465
-0.383534 -0.162566 2.3531
-0.402775 -0.242123 2.32239
-0.434046 -0.385507 2.24797
-0.285284 -0.124236 2.33391
-0.508199 -0.338714 2.30824
-0.235564 0.0492505 2.41302
-0.473507 -0.282 2.37354
-0.308568 0.00164158 2.45492
-0.425221 -0.319332 2.30464
-0.365654 -0.0649501 2.46259
-0.575467 -0.452978 2.35056
-0.438267 -0.214688 2.41019
-0.479956 -0.590298 2.35355
-0.421844 -0.714628 2.30548
-0.294648 0.0392194 2.52979
-0.529947 -0.520927 2.36245
-0.385009 -0.146774 2.44656
-0.143863 0.0745747 2.38754
-0.310571 -0.386059 2.22356
-0.321636 -0.612395 2.23207
-0.419026 -0.557789 2.22185
-0.220947 -0.536193 2.26193
-0.233336 -0.335348 2.23971
-0.369647 -0.458814 2.23164
-0.187844 -0.117221 2.31025
-0.228928 -0.629149 2.23631
-0.241247 -0.269087 2.3024
-0.137459 -0.586998 2.28107
-0.201074 -0.42263 2.26806
-0.218876 -0.692524 2.30606
-0.285393 -0.461243 2.26272
-0.139599 -0.492201 2.30968
-0.425443 -0.713065 2.30671
-0.136708 -0.168978 2.40144
-0.141752 -0.660259 2.33863
-0.167974 -0.342384 2.31023
-0.111849 -0.0597923 2.44444
-0.180191 0.238954 2.50643
-0.173452 -0.0432878 2.36831
-0.219168 -0.195159 2.35673
-0.0856674 -0.497165 2.38764
-0.1366 0.033319 2.46983
-0.135799 -0.23517 2.46602
-0.162345 -0.276064 2.38326
-0.109437 -0.558538 2.43696
-0.233983 0.23463 2.44921
-0.401895 -0.241982 2.3181
-0.337322 -0.542615 2.27515
-0.503672 -0.575179 2.24722
-0.423909 -0.319064 2.30262
-0.539534 -0.484428 2.27616
-0.384085 -0.160445 2.34894
-0.578843 -0.381367 2.31035
-0.576598 -0.601005 2.38311
-0.261522 0.215374 2.52894
-0.57748 -0.451578 2.34218
