ply
    format ascii 1.0           
    element vertex 64
    property double x           
    property double y           
    property double z           
    end_header
-0.110147 0.126526 1.41121
-0.0576224 -0.0630498 1.24984
-0.0815209 0.0704782 1.37287
-0.0818617 -0.0346546 1.31294
-0.108926 -0.118953 1.27616
-0.109396 -0.0886423 1.28385
-0.153427 -0.134849 1.32076
-0.0986509 0.00808038 1.33965
-0.0711585 -0.0465463 1.26802
-0.0766419 -0.104539 1.25531
-0.143618 -0.0815425 1.29179
-0.106098 0.0569609 1.37155
-0.17527 -0.140762 1.33809
-0.137041 -0.165937 1.30155
-0.0478907 -0.135574 1.25638
-0.0816661 -0.073314 1.26887
-0.13163 -0.0190763 1.33759
-0.11322 -0.0397473 1.31884
-0.139386 0.00293319 1.38178
-0.102184 -0.149856 1.27592
-0.111477 0.0270761 1.36167
-0.126375 0.0597136 1.39197
-0.122214 -0.0612564 1.29196
-0.162281 -0.166841 1.32382
-0.141034 -0.19042 1.32145
-0.134932 -0.108555 1.30762
-0.121886 -0.139851 1.29753
-0.137508 -0.049793 1.35164
-0.135517 -0.0607736 1.31818
-0.103675 0.0836358 1.38904
-0.150614 -0.0856955 1.32291
-0.140495 -0.0257953 1.37027
-0.123636 0.0387149 1.41754
-0.147253 -0.0914637 1.35857
-0.155147 -0.129016 1.35325
-0.11849 -0.00410515 1.36156
-0.130318 -0.0497485 1.39092
-0.112248 0.0970513 1.4281
-0.12432 0.0266996 1.38918
-0.130546 0.00711991 1.41255
-0.0696265 0.0893813 1.41049
-0.0446525 -0.0416761 1.27707
-0.0785306 0.0278445 1.35555
-0.0985324 -0.0192225 1.33472
-0.0805872 0.0712598 1.37441
-0.0947585 -0.0606176 1.29525
-0.0677033 -0.0228572 1.33994
-0.0803145 0.0364639 1.38349
-0.0581699 0.0621738 1.39202
-0.0835001 -0.0722163 1.26886
-0.109999 -0.118614 1.27788
-0.10276 -0.150385 1.27738
-0.0103359 -0.113543 1.29701
-0.0566055 0.0254737 1.39578
0.00588233 -0.136807 1.28925
-0.0585693 -0.061497 1.24998
-0.078851 -0.10369 1.25449
-0.0474187 -0.0900549 1.25835
-0.0268047 -0.117319 1.27389
-0.0480273 -0.135044 1.25793
-0.0615012 0.00692357 1.3746
-0.0898515 0.144355 1.44152
-0.151787 -0.135466 1.31999
-0.134356 -0.108513 1.30736
