ply
    format ascii 1.0           
    element vertex 68
    property double x           
    property double y           
    property double z           
    end_header
0.0283873 -0.395707 1.09133
-0.00184345 -0.140132 1.14516
0.00990766 0.0592418 1.21605
0.0301867 0.0807516 1.25109
-0.0409027 -0.293864 1.0763
0.0645176 -0.296834 1.06449
-0.0545826 -0.337889 1.07024
0.00999691 -0.218888 1.12816
-0.0604147 -0.162348 1.12179
0.00572967 -0.0118442 1.19766
-0.151519 -0.3206 1.1004
-0.0856499 -0.264822 1.0592
-0.0212328 -0.0980365 1.16262
-0.0442523 -0.245713 1.07257
0.0146369 -0.290839 1.07328
-0.137582 -0.379816 1.09057
-0.037776 -0.209333 1.11479
0.00978902 -0.341598 1.06157
-0.0651457 -0.386064 1.08077
-0.0403573 -0.0320307 1.18725
-0.196051 -0.311569 1.11009
0.045412 -0.261974 1.07857
-0.0857011 -0.10901 1.17318
-0.0221066 0.0293499 1.23931
-0.0786794 -0.227701 1.09832
-0.098556 -0.352053 1.09276
-0.173146 -0.403204 1.11981
-0.185947 -0.359742 1.10188
-0.024351 -0.36922 1.08652
-0.0486848 -0.138751 1.16361
-0.101045 -0.2984 1.09276
-0.098798 -0.152108 1.15913
-0.172165 -0.296691 1.14314
-0.14158 -0.245007 1.14857
-0.211405 -0.341694 1.13926
-0.0965926 -0.196156 1.14022
-0.117871 -0.253378 1.09798
-0.129574 -0.285107 1.12994
-0.0560898 -0.0797575 1.18991
-0.0902937 -0.0938115 1.22134
-0.113067 -0.179382 1.19686
-0.0995777 -0.138831 1.21301
-0.119359 -0.221687 1.18594
-0.0669463 -0.0503617 1.22494
-0.0160261 -0.179386 1.14218
0.0318625 0.0845064 1.26288
-0.00194821 -0.0564365 1.17671
0.0257675 -0.117144 1.17903
0.0381383 -0.0473419 1.19685
0.0770041 -0.263467 1.10984
-0.0113372 -0.257534 1.09948
0.0178098 -0.196889 1.17222
0.0403728 -0.0112746 1.25001
0.0272488 -0.249614 1.15686
-0.135415 -0.376098 1.08918
-0.139171 -0.245138 1.14626
-0.116762 -0.252421 1.09588
-0.0557977 -0.0797316 1.19034
-0.0967889 -0.349991 1.09042
-0.19258 -0.31332 1.10764
-0.183651 -0.358089 1.0985
-0.0964967 -0.152535 1.16157
-0.149902 -0.31965 1.09879
-0.064145 -0.379951 1.07771
-0.0232908 0.0312228 1.24203
-0.0956106 -0.195803 1.14049
-0.170188 -0.297674 1.143
-0.0914005 -0.0940056 1.2223
