ply
    format ascii 1.0           
    element vertex 70
    property double x           
    property double y           
    property double z           
    end_header
-0.433292 -0.26793 2.14552
-0.408316 -0.601882 2.02257
-0.468429 -0.522665 2.03527
-0.339258 -0.538126 1.97486
-0.382538 -0.543997 1.99025
-0.426712 -0.195886 2.20598
-0.406412 -0.377984 2.06043
-0.450947 -0.390386 2.05941
-0.429396 -0.472147 2.02113
-0.341039 -0.50251 1.98212
-0.428528 -0.433182 2.02564
-0.434019 -0.350866 2.07434
-0.391867 -0.450862 2.02238
-0.444342 -0.308003 2.11767
-0.464941 -0.341004 2.0993
-0.473142 -0.282744 2.14642
-0.455752 -0.436386 2.05241
-0.435592 -0.53669 2.02132
-0.413148 -0.23159 2.17284
-0.47474 -0.245961 2.15989
-0.351426 -0.433076 2.06564
-0.405538 -0.560435 2.01735
-0.420677 -0.506906 2.03167
-0.47252 -0.46413 2.06946
-0.484961 -0.501609 2.07473
-0.373323 -0.504834 1.99914
-0.495008 -0.532734 2.0582
-0.450685 -0.222973 2.17648
-0.429576 -0.616612 2.05757
-0.403121 -0.315471 2.12487
-0.343263 -0.483255 2.02077
-0.45112 -0.490254 2.04567
-0.502041 -0.275214 2.17816
-0.384722 -0.494188 2.03117
-0.469739 -0.560876 2.05387
-0.493158 -0.321621 2.13379
-0.405286 -0.273208 2.15426
-0.384091 -0.422376 2.0491
-0.351731 -0.570621 1.99062
-0.499783 -0.352769 2.11695
-0.30946 -0.532874 1.98958
-0.419869 -0.418019 2.06351
-0.463321 -0.21385 2.21941
-0.48943 -0.240127 2.20262
-0.485351 -0.426124 2.08783
-0.470569 -0.388734 2.09771
-0.435909 -0.572102 2.0431
-0.493165 -0.383522 2.13174
-0.504693 -0.334697 2.17656
-0.479781 -0.415474 2.1472
-0.487731 -0.449 2.12588
-0.470838 -0.482718 2.10953
-0.496424 -0.36955 2.16697
-0.487726 -0.307242 2.19783
-0.422889 -0.631705 2.08921
-0.490376 -0.545441 2.09317
-0.442017 -0.602411 2.10793
-0.495079 -0.278458 2.22423
-0.426398 -0.61569 2.05529
-0.44688 -0.594513 2.07282
-0.404165 -0.562369 2.01888
-0.458819 -0.501296 2.15129
-0.458481 -0.567446 2.09827
-0.457235 -0.439907 2.16682
-0.40217 -0.626626 2.12341
-0.39382 -0.635151 2.05647
-0.468952 -0.387401 2.18274
-0.456146 -0.468362 2.14659
-0.433293 -0.571699 2.04578
-0.376662 -0.504491 1.99887
