ply
    format ascii 1.0           
    element vertex 72
    property double x           
    property double y           
    property double z           
    end_header
-3.91956 0.0582607 0.0966133
-3.94334 0.0817501 0.0728074
-3.83288 0.0510531 0.119772
-3.79654 0.0159159 0.137704
1.74373 -3.59951 3.25385
-3.80653 0.0114834 0.139405
-3.95691 0.0969485 0.0621904
-3.58497 -0.0994954 0.251539
18.3325 -14.1549 13.0825
-3.21391 -0.282298 0.45858
-3.69396 -0.083078 0.214168
-3.70851 -0.00638642 0.18861
-3.83048 0.0939655 0.119434
-3.20207 -0.327272 0.47426
-3.84023 0.0770494 0.117659
-3.83651 0.0886883 0.118971
-3.37455 -0.298219 0.422859
7.16374 -6.64198 6.42638
-3.83551 0.00538254 0.155356
-3.89264 0.0387013 0.119828
-3.84974 0.0170116 0.137854
-3.99214 0.11367 0.0480207
-3.9113 0.0588331 0.0957444
-3.84483 0.0816942 0.123189
-71.4918 36.7679 -37.9284
9.69291 -8.62876 8.50524
-3.86933 0.0205454 0.143582
-3.7369 -0.0507114 0.218592
-3.83689 0.092223 0.126476
-3.84546 0.0132066 0.158083
-3.36848 -0.160929 0.377598
-3.83252 0.0808492 0.117618
-3.84168 0.0736089 0.138584
-3.87001 0.0260188 0.149473
-3.85654 0.0551429 0.133069
-3.83758 0.0670873 0.117441
-3.83659 0.0914506 0.132933
-3.84792 0.0721389 0.131425
-3.83972 0.0860011 0.125546
-3.82773 0.0874784 0.115831
-3.8288 0.0978567 0.132499
-3.823 0.0987888 0.124228
-3.82127 0.0907665 0.118966
-3.81488 0.0958471 0.124297
-3.84856 0.0356031 0.119746
-3.83048 0.0713501 0.11842
-3.83382 0.0589319 0.116546
-3.86266 0.0443779 0.124882
-3.84153 0.0535407 0.116025
-3.85545 0.047351 0.121949
-3.84839 0.0470198 0.118312
-3.85246 0.0561032 0.120219
-3.84514 0.0707048 0.116116
-3.84542 0.0610361 0.119251
-3.84307 0.0413251 0.116735
-3.83821 0.0177579 0.126481
-3.82408 0.07899 0.120668
-3.84393 0.0228863 0.125732
-3.86208 0.0347974 0.122705
-3.85514 0.0387199 0.12343
-3.86823 0.0392985 0.12492
-3.85054 0.0174782 0.127127
-3.86368 0.0167014 0.134739
-3.8166 0.0854956 0.124331
-3.83518 0.0419771 0.124502
-3.8399 0.0350779 0.12199
-3.84256 0.0117872 0.128619
-3.85722 0.0211755 0.130745
-3.84503 0.0296964 0.127666
-3.85877 0.0276778 0.12534
-3.84914 0.0105341 0.132456
-3.87034 0.0281266 0.136647
