ply
    format ascii 1.0           
    element vertex 71
    property double x           
    property double y           
    property double z           
    end_header
-0.063961 -0.101346 1.84284
0.0393172 -0.415019 1.48441
0.0247312 -0.358265 1.55546
-0.0170994 -0.248273 1.67363
-0.0487955 -0.171324 1.83606
0.0392447 -0.465149 1.60215
0.028936 -0.515495 1.65391
0.0387595 -0.354571 1.49591
0.0429394 -0.35341 1.60584
-0.0854724 -0.133188 1.73681
-0.0459483 -0.195971 1.73562
0.0287521 -0.451206 1.53342
-0.0325237 -0.268626 1.78091
0.0185916 -0.358618 1.44655
0.0418416 -0.500981 1.5045
0.00981361 -0.300268 1.49166
0.0421087 -0.410886 1.61592
0.0227646 -0.464175 1.4609
-0.0129363 -0.278567 1.72892
-0.091583 -0.0613233 1.88427
0.0397573 -0.382194 1.65842
-0.100205 -0.108167 1.79382
0.00701747 -0.298852 1.63028
-0.0810928 -0.171971 1.69255
-0.107471 -0.0540056 1.82551
0.00408317 -0.413631 1.43596
0.00403432 -0.314559 1.57787
0.0110298 -0.418007 1.57284
-0.109612 -0.236603 1.63721
-0.0348855 -0.335782 1.44504
-0.0721719 -0.478177 1.45995
-0.0692018 -0.226807 1.6721
-0.158074 -0.0901758 1.78694
-0.128186 -0.20019 1.66892
-0.0547406 -0.277856 1.62252
-0.239372 -0.055155 1.85993
-0.0800269 -0.365207 1.45267
-0.0542179 -0.407658 1.4437
-0.109072 -0.275871 1.6094
-0.153031 -0.40543 1.48595
-0.209855 -0.0881281 1.81934
-0.030346 -0.454123 1.43558
-0.12918 -0.34197 1.54792
-0.110085 -0.435741 1.4968
-0.154969 -0.26742 1.6469
-0.140898 -0.0221828 1.88586
-0.202402 -0.00348585 1.87667
-0.205527 -0.139789 1.82856
-0.139674 -0.140933 1.76021
-0.13281 -0.162134 1.71023
-0.187219 -0.334118 1.55456
-0.0500513 -0.296062 1.48603
-0.147471 -0.313576 1.59797
-0.172779 -0.234538 1.68955
-0.115762 -0.501187 1.5343
-0.169167 -0.191244 1.73693
-0.104279 -0.311459 1.58132
-0.111434 -0.373198 1.50843
-0.0823968 -0.331306 1.53541
-0.183289 -0.404246 1.5313
-0.182524 -0.155582 1.78622
-0.184115 -0.312575 1.65169
-0.225907 0.0100891 1.93263
-0.167889 -0.0588138 1.84306
-0.0572385 -0.310842 1.57675
0.00893372 -0.300633 1.6246
0.0345447 -0.348634 1.49734
-0.000820641 -0.31332 1.57837
-0.166232 -0.0160586 1.94316
0.0430672 -0.351053 1.60041
-0.0468177 -0.179441 1.83203
