ply
    format ascii 1.0           
    element vertex 75
    property double x           
    property double y           
    property double z           
    end_header
-0.288923 -0.560915 1.4624
-0.413029 -0.583078 1.41372
-0.315876 -0.53443 1.49274
-0.391303 -0.470962 1.591
-0.432758 -0.605266 1.38767
-0.459481 -0.40342 1.69959
-0.313079 -0.561172 1.43562
-0.398828 -0.539114 1.45039
-0.381488 -0.503865 1.49211
-0.434439 -0.435254 1.60353
-0.431178 -0.465341 1.57114
-0.345188 -0.576559 1.42011
-0.347414 -0.633173 1.39003
-0.370879 -0.652856 1.36956
-0.280056 -0.673217 1.40892
-0.288056 -0.610994 1.44333
-0.30248 -0.63589 1.40803
-0.347154 -0.516544 1.50644
-0.382098 -0.617862 1.39
-0.363118 -0.541011 1.47618
-0.436885 -0.488188 1.53882
-0.323183 -0.664889 1.38695
-0.477231 -0.438414 1.61434
-0.371878 -0.492776 1.52774
-0.377018 -0.566593 1.44516
-0.459383 -0.517056 1.5144
-0.333149 -0.605829 1.40925
-0.377724 -0.59939 1.41762
-0.329786 -0.564392 1.4667
-0.474595 -0.47128 1.58012
-0.407415 -0.638409 1.38047
-0.40969 -0.526783 1.47649
-0.47757 -0.501376 1.54893
-0.417982 -0.506399 1.50828
-0.45926 -0.556031 1.50617
-0.418978 -0.582226 1.45966
-0.440855 -0.64382 1.40149
-0.444194 -0.579942 1.48851
-0.424727 -0.548216 1.48653
-0.452718 -0.408496 1.65933
-0.495384 -0.399698 1.66492
-0.460876 -0.400289 1.70396
-0.371579 -0.65251 1.3701
-0.390698 -0.471164 1.59191
-0.370673 -0.496264 1.53051
-0.347105 -0.517273 1.50804
-0.268701 -0.650521 1.44304
-0.417759 -0.451314 1.64207
-0.285547 -0.608765 1.44155
-0.24975 -0.726796 1.45914
-0.345339 -0.523784 1.54889
-0.280377 -0.637805 1.53097
-0.260288 -0.666848 1.48241
-0.274879 -0.627763 1.4727
-0.258737 -0.68926 1.44403
-0.313801 -0.607653 1.55089
-0.249181 -0.704461 1.49007
-0.265982 -0.724783 1.42603
-0.288709 -0.595586 1.48075
-0.244068 -0.748323 1.49301
-0.37354 -0.508568 1.57717
-0.316203 -0.552482 1.53095
-0.298828 -0.566475 1.49965
-0.302558 -0.60037 1.51576
-0.304172 -0.645607 1.56603
-0.444109 -0.484142 1.64787
-0.297031 -0.653206 1.49907
-0.377056 -0.542269 1.60083
-0.408873 -0.535839 1.62054
-0.332543 -0.578052 1.55574
-0.351293 -0.549722 1.57109
-0.409514 -0.497263 1.6098
-0.303011 -0.669283 1.53414
-0.293803 -0.695215 1.50773
-0.279342 -0.728393 1.50892
