ply
    format ascii 1.0           
    element vertex 70
    property double x           
    property double y           
    property double z           
    end_header
0.128778 0.207858 3.09305
0.39493 -0.178727 3.40455
0.0227022 1.00973 3.11718
-0.0739036 0.758289 3.04362
0.452947 -0.321947 3.6505
0.180854 -0.34987 3.10977
-0.0213733 -0.0450162 2.91223
0.097102 -0.183892 2.99801
0.450839 -0.0206544 3.36976
0.133494 0.621004 3.12793
0.311396 -0.228807 3.23827
0.196938 -0.185252 3.12745
0.446719 0.119652 3.30909
0.255768 -0.374954 3.24536
0.167636 0.469777 3.20148
0.136191 -0.498241 3.13447
0.193566 -0.519622 3.26917
0.0932423 0.861846 3.11524
0.231706 0.614068 3.25855
0.354783 0.155981 3.18343
0.142194 0.87815 3.25989
0.0481634 -0.420117 3.03939
0.256565 0.0478417 3.15299
-0.0219007 -0.294763 2.9574
0.323818 -0.461864 3.55684
0.362171 -0.292235 3.51601
0.262229 -0.0861826 3.23186
0.0508386 0.49287 3.08989
-0.0175596 -0.525378 3.1611
0.063381 0.344458 3.15237
-0.0423541 0.205209 3.07149
-0.12148 -0.162829 2.94968
-0.150341 -0.561018 3.31926
0.0435772 -0.551219 3.31979
0.116155 -0.037376 3.1778
-0.120597 0.481814 3.10069
-0.123324 -0.399164 3.08447
-0.199925 -0.264421 3.038
-0.405232 -0.000736097 3.10419
-0.253473 0.0547703 3.07658
-0.250922 0.233421 3.18448
-0.2994 -0.119923 3.12318
-0.389826 0.140969 3.17809
-0.0385576 0.623564 3.16375
-0.473857 -0.184726 3.62322
-0.25804 0.395127 3.26954
-0.133589 -0.437648 3.19558
-0.111242 0.326615 3.16214
0.273037 0.462321 3.32476
0.264443 -0.0766377 3.23557
0.187092 0.322683 3.28486
0.326906 0.242926 3.30675
0.312213 -0.230315 3.24663
-0.0864943 0.885226 3.1551
0.0151009 0.0228515 3.05339
-0.0232356 1.1089 3.23375
0.253538 -0.383564 3.25625
0.197491 -0.522614 3.27204
0.0900125 1.03179 3.32486
0.106007 0.718328 3.25406
0.141972 0.880184 3.26902
0.459298 -0.184539 3.6073
0.427734 0.043679 3.86017
0.459579 -0.321086 3.65528
0.333533 0.126807 3.75457
0.177383 0.749019 3.39808
0.404111 -0.184986 3.41463
0.246097 0.285093 3.61218
0.418393 -0.116265 3.89356
0.343725 0.188858 3.45821
