ply
    format ascii 1.0           
    element vertex 68
    property double x           
    property double y           
    property double z           
    end_header
-0.948469 0.878309 4.87788
-0.68799 1.084 4.78551
-0.708036 1.27292 4.97987
-1.26998 -0.222965 4.2109
-0.545652 0.128368 3.99582
-0.899537 -0.672599 3.85125
-0.244873 -0.178182 3.86591
-1.26085 -0.613637 4.06952
-0.839077 0.138541 4.28453
-1.11776 -0.804789 3.94198
-0.267575 -0.460312 3.86354
-0.734386 1.51299 5.40302
-0.690644 -0.062723 4.03807
-1.08537 -0.412211 4.0075
-0.701635 -1.00004 3.82498
-0.694359 0.737809 4.57119
0.0910883 -0.769226 3.84832
-0.929966 -0.928019 3.82977
-0.338986 0.472763 4.41018
-0.164662 -0.706432 3.90898
-0.826929 -0.423494 3.94344
-0.308311 0.0573692 3.92689
-0.58665 -0.490701 3.83469
-0.593001 0.494208 4.47488
-0.176973 -1.00017 3.8707
-0.432476 0.709696 4.51852
-0.650861 -0.746929 3.81656
-0.594417 -0.294099 4.00054
-0.432528 1.06037 4.83159
0.0514221 -0.52799 3.89108
-0.771641 0.28404 4.50717
-1.02654 -0.169947 4.29081
-0.492794 -1.05891 3.936
-0.373854 -0.887836 4.04103
-0.412653 -0.673367 3.92798
0.0431441 -0.957324 3.96857
0.233009 -0.401732 4.07574
0.437272 -0.592711 4.16636
0.234906 -0.20156 4.3583
-0.0296612 -0.345246 4.05776
0.436713 -0.343352 4.24579
0.220859 -0.651729 4.0677
-0.352335 1.23507 5.04053
-0.244626 0.809794 4.7958
0.00305825 0.0445779 4.51228
-0.374443 0.179058 4.1718
-0.179888 0.225971 4.42883
0.269954 -0.879329 4.11781
-0.198071 0.457936 4.87852
-0.495452 0.245831 4.39833
-0.507829 0.806752 4.77505
-0.943966 0.881666 4.90382
-0.790425 -0.275149 4.18736
-0.828461 0.526965 4.58879
-0.959074 0.423271 4.81906
-1.32133 -0.464444 4.28718
-0.97598 -1.21789 4.25554
-1.00668 0.0644794 4.50331
-1.18116 -0.276774 4.70849
-1.14182 -0.261451 4.99895
-0.76118 0.634036 4.84979
-1.1814 -0.898175 4.21997
-0.912036 0.170364 4.73107
-1.28662 -0.443252 4.88172
-1.29624 -0.690027 4.37302
-1.0072 -0.0511994 4.8795
-1.19839 -0.576154 4.66184
-0.511945 0.803444 4.7616
