ply
    format ascii 1.0           
    element vertex 74
    property double x           
    property double y           
    property double z           
    end_header
-0.106343 -0.863869 1.67565
-0.0649132 -0.766196 1.65631
-0.196787 -0.860769 1.59188
-0.240026 -0.94886 1.59099
-0.0285015 -0.90042 1.76757
-0.0363048 -0.990175 1.78315
-0.133566 -0.453491 1.73846
-0.211097 -0.769884 1.61909
-0.0686744 -0.669893 1.63933
-0.221789 -0.421869 1.69366
-0.120519 -0.946795 1.73978
-0.182579 -0.0942607 1.85582
-0.184113 -0.17676 1.79069
-0.1457 -0.61982 1.59674
0.0216124 -0.808409 1.95016
-0.185544 -0.924498 1.67205
-0.148361 -0.290619 1.8481
-0.14922 -1.05258 1.74479
-0.148839 -0.343885 1.74181
0.00792328 -0.906546 1.94532
-0.0355289 -0.732336 1.91039
-3.34822e-05 -0.84144 1.8537
-0.0689234 -0.808109 1.78042
-0.25863 -1.04603 1.69318
-0.105715 -0.618284 1.8816
-0.0373772 -0.928915 1.86574
-0.135967 -0.53011 1.90529
-0.11645 -0.554298 1.79745
-0.0897643 -0.648112 1.75532
-0.208828 -0.529449 1.72477
-0.185467 -0.202206 1.85911
-0.221763 -0.277097 1.77298
-0.265034 -0.0222786 1.83958
-0.126383 -0.58862 1.68539
-0.221417 -0.677899 1.58979
-0.252761 -0.15567 1.70998
-0.244028 -0.312129 1.67834
-0.279056 -0.0597196 1.75156
-0.307048 -0.481061 1.67882
-0.29497 -0.561527 1.60682
-0.284892 -0.812715 1.56115
-0.310991 -0.379337 1.67231
-0.313703 -0.909398 1.53596
-0.33502 -0.309098 1.74868
-0.304127 -0.725967 1.62672
-0.348446 -1.00193 1.54511
-0.372183 -0.783646 1.51335
-0.372854 -0.197603 1.70358
-0.411961 -0.379904 1.71449
-0.400589 -0.548776 1.64242
-0.414237 -0.933266 1.52283
-0.406112 -0.488236 1.72919
-0.44887 -0.677508 1.5109
-0.53327 -0.629855 1.69214
-0.461906 -0.839467 1.50984
-0.488786 -0.53808 1.76645
-0.510607 -0.749848 1.54329
-0.620176 -0.660328 1.73342
-0.579286 -0.586529 1.79077
-0.544801 -0.821106 1.60357
-0.562428 -0.745229 1.70603
-0.463701 -0.454412 1.8292
-0.445666 -0.62273 1.72283
-0.358518 -0.0480151 1.9072
-0.502211 -0.919235 1.59073
-0.478741 -1.0452 1.70944
-0.4332 -1.01182 1.5943
-0.239663 -0.952239 1.58775
-0.140205 -1.05343 1.73711
-0.285312 -1.03905 1.60223
-0.115473 -0.951041 1.72625
-0.194459 -0.86731 1.5848
-0.385272 -0.662806 1.581
-0.215512 -0.774945 1.61564
