ply
    format ascii 1.0           
    element vertex 72
    property double x           
    property double y           
    property double z           
    end_header
0.0320779 -0.236081 1.55526
-0.00730247 -0.262048 1.57091
-0.0798034 -0.357083 1.57186
-0.014684 -0.221864 1.58973
-0.0372675 -0.373031 1.55695
0.0135514 -0.368691 1.55185
-0.0458518 -0.255901 1.59635
-0.0524627 -0.265345 1.73162
0.00442772 -0.407836 1.53925
0.0748702 -0.312786 1.53061
-0.0539646 -0.339012 1.59939
-0.0219614 -0.222345 1.74159
-0.0932877 -0.371979 1.61365
-0.0419602 -0.232699 1.8081
-0.0321894 -0.250162 1.68838
0.0538248 -0.268623 1.53918
0.0679483 -0.217179 1.57574
0.0913017 -0.269614 1.55344
-0.0443585 -0.215418 1.62054
-0.00439322 -0.198877 1.62112
-0.0273554 -0.214371 1.78085
0.028164 -0.215718 1.59777
-0.0704558 -0.160422 1.90129
0.00885323 -0.205872 1.7721
0.0349442 -0.233051 1.72737
-0.0343069 -0.194988 1.83415
-0.0503884 -0.169987 1.86258
-2.46277e-05 -0.205152 1.81109
0.0179278 -0.240128 1.68586
0.0489402 -0.233597 1.7699
0.074196 -0.251818 1.73597
0.0835166 -0.25046 1.77622
0.11987 -0.294851 1.68703
-0.0133401 -0.223828 1.65327
0.132832 -0.307131 1.56807
0.0793947 -0.280867 1.69591
0.105516 -0.246131 1.58608
0.0337142 -0.233967 1.64062
0.0364642 -0.224084 1.82941
0.139162 -0.362679 1.66956
0.105793 -0.306155 1.72626
0.148335 -0.388589 1.57303
0.101028 -0.315989 1.65448
0.0876602 -0.285645 1.75669
0.108729 -0.30542 1.5338
0.113547 -0.28718 1.60033
0.107213 -0.38289 1.54153
0.0677716 -0.236811 1.54224
0.139191 -0.346216 1.5848
-0.0778863 -0.346393 1.56748
-0.0357075 -0.361356 1.55179
0.00686316 -0.395463 1.53411
0.0528391 -0.377969 1.54236
0.0971361 -0.345142 1.54083
0.0136771 -0.355793 1.54608
0.029539 -0.275677 1.56156
-0.0430581 -0.252786 1.59679
-0.0430502 -0.214793 1.61987
-0.0512557 -0.328361 1.59673
0.0651035 -0.342817 1.54756
-0.00707593 -0.257878 1.56864
-0.0255735 -0.294044 1.58567
0.0434886 -0.311405 1.54624
0.0748016 -0.303927 1.52705
-0.0019982 -0.3335 1.58346
-0.0256523 -0.408488 1.55746
-0.0727981 -0.386528 1.57784
0.0516789 -0.26199 1.53684
-0.00509233 -0.198095 1.61991
-0.0241264 -0.203851 1.84265
-0.0577569 -0.174595 1.91014
-0.0916782 -0.361089 1.60814
