ply
    format ascii 1.0           
    element vertex 70
    property double x           
    property double y           
    property double z           
    end_header
0.202803 0.117349 0.937483
0.10468 -0.0707349 0.873118
0.0341962 0.0663832 0.898204
0.269216 0.110082 0.93546
0.23717 -0.130795 0.920299
0.207184 -0.0216086 0.892833
0.0784039 0.0097411 0.887937
0.00510601 0.0131621 0.901608
0.142876 0.0903033 0.949823
0.228014 0.0106416 0.915498
0.151598 0.155581 0.965388
0.277911 -0.00665086 0.901675
0.213222 0.168291 0.970202
0.102077 0.295261 1.36523
0.0798233 0.0692258 0.948481
0.184107 -0.0817839 0.901008
0.0542758 -0.0561244 0.885843
0.316692 0.10684 0.980141
0.138515 0.0227145 0.948876
0.172786 0.203468 1.00517
0.320194 0.079004 0.927826
0.312504 -0.0337898 0.921566
0.230668 0.191175 1.02224
0.228253 -0.0443907 0.917739
0.263169 0.142846 0.998638
0.104356 0.244195 1.32805
0.273944 -0.164117 0.979339
0.265655 -0.0729953 0.922419
0.105974 0.312289 1.46732
0.309553 0.0247465 0.948791
0.291056 -0.103535 1.00101
0.180454 0.193694 1.24704
0.33409 0.0453816 1.00189
0.322796 -0.0510993 0.978419
0.202381 0.133924 1.18995
0.308415 -0.00774959 1.01901
0.223158 0.078735 1.27704
0.200904 0.126671 1.25696
0.172661 0.157112 1.34079
0.141455 0.1955 1.19193
0.210667 0.031797 1.24525
0.226265 0.0785303 1.21402
0.225526 0.0356472 1.15328
0.193164 0.133352 1.12206
0.240558 -0.116745 1.12431
0.214604 -0.134634 1.1919
0.12953 0.166581 1.10594
0.229618 -0.0337298 1.09673
0.154052 0.206897 1.30468
0.230289 0.119785 1.06223
0.258622 -0.019845 1.1533
0.0998484 0.207381 1.40123
0.192086 0.035432 1.09355
0.186633 0.17396 1.06412
0.135472 -0.0250187 0.899558
0.194209 0.117456 0.939703
0.145554 0.157939 0.963161
0.270126 0.0562966 0.912789
0.0838227 0.210065 1.28267
0.0642225 0.072581 0.949433
0.0749525 0.170366 1.16095
0.0741849 0.319891 1.4157
0.161629 -0.0925788 0.906719
0.122759 0.0199238 0.951254
0.211176 0.0029661 0.917169
0.132121 0.092419 0.949564
-0.0193657 0.0703435 0.949111
0.0523732 0.259685 1.3764
0.00878447 0.0716857 1.07081
0.0200272 0.0646099 1.00764
