ply
    format ascii 1.0           
    element vertex 74
    property double x           
    property double y           
    property double z           
    end_header
-0.574762 -0.576024 3.33977
-0.478762 -0.766949 3.33435
-0.667219 -1.12377 3.1164
-0.645635 -1.21959 3.14646
-0.574252 -0.717558 3.31792
-0.695021 -0.977314 3.05838
-0.846272 -0.889215 3.1664
-0.672625 -0.627806 3.36707
-0.979844 -1.06165 3.44017
-0.555639 -1.1855 3.16699
-0.587755 -0.425592 3.43976
-0.790573 -1.00839 3.10247
-0.904836 -1.14352 3.41143
-0.791815 -0.808841 3.15098
-0.625899 -1.32062 3.30627
-0.602213 -1.03876 3.09621
-0.812837 -1.18705 3.34518
-0.591598 -0.321247 3.44466
-0.748534 -0.901696 3.12643
-0.854172 -0.984377 3.19732
-0.733909 -1.26297 3.34926
-0.720936 -1.19584 3.16553
-0.831431 -1.26091 3.41785
-0.872081 -0.800006 3.21547
-0.770218 -1.05882 3.20701
-0.806723 -1.08125 3.35774
-0.894228 -0.901182 3.26776
-0.86104 -0.99665 3.31327
-0.6184 -0.51298 3.48675
-0.894309 -1.00968 3.41381
-0.578394 -0.229241 3.50993
-0.762085 -1.14926 3.23377
-0.707481 -1.21431 3.27063
-0.871801 -1.21346 3.49427
-0.765008 -1.09801 3.11486
-0.954915 -0.99809 3.52787
-0.746587 -0.676325 3.44216
-0.489406 -0.659458 3.36253
-0.755017 -0.749096 3.35527
-0.405047 -0.705566 3.37267
-0.437682 -0.957755 3.31842
-0.545816 -0.501008 3.40289
-0.51075 -0.884201 3.33059
-0.65527 -0.781469 3.28848
-0.761166 -0.783934 3.24869
-0.680664 -0.864601 3.21204
-0.445864 -0.535227 3.42126
-0.504344 -1.31609 3.32652
-0.600226 -0.981036 3.22311
-0.336318 -1.05765 3.48271
-0.404081 -1.10641 3.40725
-0.481013 -0.405059 3.52692
-0.648084 -1.22059 3.14822
-0.50809 -1.02641 3.33039
-0.600274 -0.9381 3.3352
-0.507344 -0.176587 3.38596
-0.407807 -0.654772 3.45299
-0.411583 -0.893729 3.39616
-0.604559 -0.844663 3.38475
-0.508876 -1.13275 3.32778
-0.558728 -1.0836 3.18772
-0.41346 -0.794 3.40963
-0.516737 -1.22172 3.26936
-0.484244 -0.285448 3.54474
-0.405027 -0.999825 3.41247
-0.489472 -0.193229 3.48299
-0.498832 -1.22694 3.38943
-0.656241 -1.25735 3.24692
-0.835801 -1.26579 3.42757
-0.863474 -1.02396 3.28311
-0.739878 -1.2692 3.3574
-0.724466 -1.19837 3.16736
-0.97702 -1.06298 3.45045
-0.868953 -0.806515 3.21067
