ply
    format ascii 1.0           
    element vertex 73
    property double x           
    property double y           
    property double z           
    end_header
-0.100415 -0.151461 0.420616
-0.0994319 -0.173067 0.435817
-0.0942433 -0.0212991 0.452107
-0.121199 -0.126921 0.459365
-0.0689484 0.0369742 0.470114
-0.108016 -0.115538 0.447452
-0.106374 -0.0937184 0.445524
-0.0768562 -0.132595 0.389494
-0.0843141 -0.0638445 0.440342
-0.102068 -0.0639718 0.454753
-0.0687177 -0.0246031 0.444158
-0.107357 -0.135179 0.446466
-0.100212 -0.0036492 0.467782
-0.107974 -0.0453149 0.467436
-0.0909777 -0.127228 0.401952
-0.0859588 -0.155885 0.406531
-0.0908864 -0.1698 0.417857
-0.102774 -0.174011 0.459082
-0.070183 -0.0486564 0.444186
-0.0878629 -0.0429183 0.456313
-0.0852554 0.0287524 0.485949
-0.12158 -0.106284 0.4595
-0.126455 -0.122011 0.479759
-0.0789344 -0.100583 0.40855
-0.10434 -0.154841 0.443353
-0.0927188 -0.120681 0.437028
-0.061245 0.00372888 0.461792
-0.0840693 -0.100028 0.431598
-0.0737341 -0.116715 0.396418
-0.0988406 -0.193272 0.463955
-0.108625 -0.0845301 0.463526
-0.101382 -0.0130088 0.489775
-0.0589486 -0.0997878 0.40221
-0.121089 -0.101678 0.480676
-0.0574493 -0.115687 0.392835
-0.087505 -0.085264 0.447538
-0.097695 -0.027982 0.473163
-0.0920859 -0.13952 0.432084
-0.0815745 0.00987165 0.471623
-0.0778874 -0.0106083 0.45992
-0.0822916 -0.119032 0.418527
-0.0645927 -0.074629 0.438325
-0.0742481 0.040178 0.494605
-0.101806 -0.162071 0.479746
-0.0938208 0.00752582 0.491215
-0.102712 -0.0691632 0.481861
-0.094621 -0.181599 0.480161
-0.0793167 0.0154708 0.504283
-0.0848117 -0.137823 0.414709
-0.102572 -0.0411875 0.488876
-0.113006 -0.136503 0.475758
-0.0995105 -0.0904588 0.480305
-0.0857216 -0.175467 0.499843
-0.0840544 -0.0526072 0.496281
-0.076398 -0.158595 0.510317
-0.0872601 -0.155908 0.493983
-0.0931788 -0.125935 0.497258
-0.0910742 -0.0732496 0.494005
-0.099094 -0.143262 0.488691
-0.0788077 -0.0303173 0.503511
-0.107833 -0.10337 0.495343
-0.0638996 -0.142734 0.508184
-0.0748032 -0.111183 0.505279
-0.110344 -0.123974 0.49397
-0.102388 -0.174459 0.458471
-0.10059 -0.146363 0.464675
-0.121642 -0.126847 0.458955
-0.0881105 -0.187929 0.448239
-0.0900436 -0.169799 0.419135
-0.0783185 -0.100177 0.410172
-0.0845503 -0.0637234 0.441202
-0.106895 -0.0932631 0.444734
-0.0865679 -0.155107 0.407227
