ply
    format ascii 1.0           
    element vertex 64
    property double x           
    property double y           
    property double z           
    end_header
-0.0487021 -0.24946 0.945216
-0.0435548 -0.198626 0.900515
-0.0868773 -0.137435 0.963464
-0.05572 -0.22759 0.979503
-0.0853501 -0.0778551 0.964714
-0.0446035 -0.172545 0.90885
-0.0729476 -0.127225 0.940964
-0.0669971 -0.24147 0.996238
-0.0555401 -0.270823 0.918176
-0.0579746 -0.275464 0.942886
-0.0541191 -0.218025 0.917988
-0.074376 -0.0968688 0.930906
-0.0876537 -0.0478774 0.950694
-0.131614 -0.00759312 0.976689
-0.0617676 -0.264054 0.889848
-0.119059 -0.00451893 0.94953
-0.0746866 -0.195517 0.986632
-0.0660386 -0.287666 0.877304
-0.0473555 -0.183407 0.876468
-0.054517 -0.244659 0.915906
-0.0566388 -0.158842 0.885785
-0.074167 -0.24108 0.870363
-0.0718085 -0.289264 0.902862
-0.0970008 -0.0495361 0.920828
-0.0618002 -0.207115 0.881291
-0.0710396 -0.227076 0.895531
-0.0847598 -0.215307 0.86869
-0.0918217 -0.085532 0.909938
-0.0811998 -0.267922 0.864111
-0.116057 -0.101874 0.904916
-0.12195 -0.233033 0.845652
-0.104823 -0.126915 0.895417
-0.101927 -0.255633 0.846773
-0.0758275 -0.18454 0.865484
-0.0871893 -0.122435 0.907229
-0.0994243 -0.232403 0.861631
-0.126672 -0.0412702 0.911964
-0.103648 -0.194251 0.872873
-0.0822242 -0.159095 0.873734
-0.131924 -0.0729897 0.908816
-0.135975 -0.015484 0.925755
-0.127428 -0.175568 0.87252
-0.135929 -0.154025 0.88957
-0.139513 -0.217651 0.861145
-0.141088 0.00989475 0.950027
-0.130869 -0.258061 0.856916
-0.142472 -0.103459 0.917204
-0.108216 -0.0263324 0.931133
-0.157138 -0.00386521 0.939846
-0.159427 -0.0331378 0.936656
-0.177672 -0.222027 0.926454
-0.0665228 -0.147255 0.919595
-0.105905 -0.0678066 0.916923
-0.058155 -0.166508 0.938843
-0.0860548 -0.151355 0.901264
-0.0915079 -0.076271 0.937184
-0.0546593 -0.229234 0.983995
-0.0538005 -0.217748 0.919726
-0.0552081 -0.271074 0.920043
-0.0716279 -0.289775 0.904902
-0.0739631 -0.195818 0.990688
-0.0740086 -0.221092 1.00122
-0.0652024 -0.23806 0.966338
-0.0571637 -0.275926 0.946491
