ply
    format ascii 1.0           
    element vertex 67
    property double x           
    property double y           
    property double z           
    end_header
-0.153958 -0.0157858 1.2096
-0.170065 -0.0394727 1.18366
-0.0560675 0.106574 1.30846
-0.148498 -0.139437 1.13637
-0.176031 -0.162245 1.16276
-0.170096 -0.126141 1.17362
-0.0889298 0.0545635 1.26093
-0.116483 -0.106714 1.13459
-0.163519 -0.172811 1.12973
-0.028962 -0.0729099 1.12787
-0.0795193 -0.101099 1.11519
-0.0758012 0.0226353 1.235
-0.166663 -0.102465 1.20562
-0.0461227 0.134861 1.37552
-0.127718 -0.0179451 1.1788
-0.0386014 0.0774905 1.27953
-0.112283 -0.137369 1.1152
-0.15868 -0.0752543 1.18048
-0.112507 -0.0745331 1.15342
-0.139331 -0.0490374 1.15979
-0.137351 -0.101679 1.17227
-0.0776977 -0.139072 1.10814
-0.127067 -0.172621 1.12648
-0.0486465 -0.118999 1.11046
-0.0122007 -0.0474316 1.17219
-0.0389494 0.00611084 1.23717
-0.00337015 0.130979 1.38188
-0.106747 -0.00180099 1.21848
-0.050577 0.0414197 1.26634
-0.0846049 -0.0138391 1.19106
-0.00232613 -0.0926193 1.12396
-0.0755842 -0.065679 1.16956
-0.0478029 -0.0451532 1.19161
-0.102625 -0.0432409 1.1705
-0.0045604 0.0447403 1.295
-0.0936806 0.0900167 1.3264
-0.0176213 -0.123666 1.12699
-0.0741445 0.0672856 1.2956
-0.0800835 -0.0952633 1.14941
0.000831576 -0.0749845 1.14888
-0.0641748 -0.0222806 1.22136
-0.0203319 0.0126093 1.27124
-0.00495137 0.0757086 1.34977
-0.0345413 0.106316 1.34576
-0.0734281 0.119005 1.34967
-0.0389244 -0.072947 1.16302
-0.0476067 -0.0980219 1.13956
-0.118062 0.0109558 1.26067
-0.111333 0.050588 1.29528
-0.188028 -0.151603 1.23907
-0.175157 -0.162287 1.16409
-0.167949 -0.101806 1.20492
-0.191725 -0.164895 1.20154
-0.111879 0.014567 1.31112
-0.17275 -0.134021 1.21164
-0.0971716 0.0790337 1.36578
-0.126131 -0.00869341 1.28444
-0.16243 -0.0348317 1.23921
-0.159829 -0.0747332 1.18045
-0.0721605 0.104459 1.39261
-0.17464 -0.0629471 1.21775
-0.126663 -0.0595861 1.29768
-0.0958165 0.0371911 1.35089
-0.163462 -0.173434 1.12765
-0.166188 -0.193727 1.18953
-0.113325 -0.0737227 1.15225
-0.042857 0.0752597 1.27784
