ply
    format ascii 1.0           
    element vertex 71
    property double x           
    property double y           
    property double z           
    end_header
0.0419908 -1.87684 8.97263
-1.55038 -0.0554174 10.0758
0.557309 -2.32752 9.18175
1.07798 -1.52253 9.67405
0.774039 -1.01121 9.626
-0.607767 -1.05055 9.24121
-0.340149 -1.50001 9.17806
-2.38076 0.962922 10.2993
0.915856 -1.95656 9.37963
-1.93716 0.60149 10.3561
-2.27641 1.47075 10.4813
-1.50292 0.395973 10.2995
-0.872919 -1.53559 9.1134
-1.86602 1.07236 10.5676
-0.586228 -2.02193 9.25523
-2.8144 0.772519 10.5035
-3.01827 1.55529 10.8402
-2.27078 0.237487 10.4819
-0.00281054 -2.3832 9.14268
-1.6999 -0.558007 10.1618
-1.99472 -0.172976 10.3654
-1.15446 -1.15715 9.40556
-0.513802 -3.02245 10.3943
-1.09095 -1.90989 9.51779
-0.795385 -2.60542 10.3372
-2.30269 -0.372202 10.7412
-2.55516 0.0782272 10.8291
-0.190958 -2.68117 10.0668
-0.873113 -2.27623 9.88156
-1.34189 -1.48923 9.82651
-1.71863 -1.12873 10.4606
-1.20735 -0.7032 9.89678
-0.272234 -2.35062 9.57782
-1.93157 -0.710802 10.5348
-2.68898 1.22726 10.6792
-1.55931 -1.61996 10.3222
-0.758641 -2.9213 11.1376
-3.26204 1.28763 11.2535
-0.566407 -3.23997 11.3951
-1.25224 -2.00983 10.2291
-1.35652 -0.838678 10.3464
-2.09751 -0.663103 11.0945
-1.84459 -1.09061 10.9977
-1.66694 -1.57037 10.795
-2.6459 0.476274 11.3535
-0.414934 -0.673118 9.70018
1.0923 -1.51915 9.62328
-0.869802 -0.86135 9.64481
0.0257075 -1.15619 9.63385
0.431338 -1.81369 9.25776
-1.95066 1.47808 10.9409
1.187 -1.11234 9.99202
-0.794669 -0.392333 9.83583
0.358239 -0.909981 10.018
-1.03775 0.0699598 10.3589
-1.21616 0.445232 10.7539
0.839781 -0.724696 10.1392
-0.797389 0.110541 10.841
-1.74498 1.26766 11.3703
-1.42514 0.829098 11.2686
-0.324244 -0.482084 10.3009
-0.719726 -0.306185 10.2416
-2.48405 1.69067 10.964
-0.274051 -0.479459 11.0108
-1.99036 -0.190163 10.3514
-1.1613 -0.371294 10.1594
-2.86873 0.770637 10.4882
-1.19989 -0.706674 9.90482
-3.07413 1.5758 11.0343
-2.71637 1.21209 10.7061
-1.29909 -1.46665 9.86408
