ply
    format ascii 1.0           
    element vertex 77
    property double x           
    property double y           
    property double z           
    end_header
-0.387206 -0.638684 1.7147
-0.439255 -0.547933 1.77987
-0.419185 -0.562762 1.7257
-0.389023 -0.454103 1.73114
-0.237283 -0.4534 1.64821
-0.347619 -0.433657 1.69435
-0.465951 -0.579085 1.81526
-0.367359 -0.400307 1.74436
-0.362435 -0.596333 1.68858
-0.331313 -0.337749 1.72039
-0.342142 -0.301034 1.75954
-0.260845 0.0206008 1.90175
-0.281508 -0.0661771 1.83132
-0.307137 -0.122126 1.82809
-0.428034 -0.60388 1.76366
-0.208721 -0.616357 1.65569
-0.368608 -0.544087 1.70922
-0.310761 -0.194536 1.80718
-0.31378 -0.618318 1.66761
-0.287991 -0.293326 1.73253
-0.403932 -0.518 1.74694
-0.269271 -0.425418 1.69127
-0.209529 -0.664186 1.6831
-0.215298 -0.564952 1.67718
-0.320165 -0.565396 1.68985
-0.203017 -0.50363 1.66141
-0.312895 -0.084676 1.87136
-0.26537 -0.522947 1.70431
-0.204237 -0.403431 1.65275
-0.312885 -0.394827 1.71471
-0.347745 -0.495683 1.7224
-0.285718 -0.250641 1.77586
-0.300372 -0.471437 1.70226
-0.270558 -0.575478 1.68777
-0.233384 -0.264679 1.74828
-0.15909 -0.543358 1.66539
-0.273308 -0.350401 1.7184
-0.163746 -0.455092 1.65618
-0.220729 -0.384917 1.71286
-0.250385 -0.0257448 1.86493
-0.198255 -0.0689323 1.88249
-0.222886 -0.321917 1.74079
-0.257155 -0.63317 1.68286
-0.253379 -0.182508 1.82377
-0.10545 -0.570224 1.67737
-0.125755 -0.501334 1.68873
-0.207106 -0.209572 1.84242
-0.15594 -0.386652 1.70466
-0.188077 0.0165625 1.90888
-0.161478 -0.597647 1.6758
-0.200332 -0.1285 1.89126
-0.0806189 -0.530091 1.70465
-0.339472 -0.269442 1.79917
-0.320076 -0.178628 1.85952
-0.358305 -0.352107 1.7683
-0.314309 -0.134944 1.89303
-0.40176 -0.512448 1.79913
-0.289495 -0.0406727 1.8882
-0.157283 -0.543392 1.66347
-0.319303 -0.566447 1.69344
-0.301069 -0.470872 1.70152
-0.162832 -0.454391 1.65539
-0.207695 -0.667084 1.68552
-0.200685 -0.1252 1.89426
-0.125485 -0.500383 1.68985
-0.314721 -0.618753 1.66767
-0.158763 -0.598638 1.67458
-0.102508 -0.571538 1.67882
-0.199769 -0.0654865 1.8788
-0.261604 0.0191237 1.90496
-0.253946 -0.181865 1.82422
-0.0761685 -0.531918 1.71241
-0.429334 -0.60299 1.75545
-0.208338 -0.20643 1.84343
-0.107763 -0.621643 1.70996
-0.157151 -0.651714 1.70281
-0.192041 0.016162 1.91067
