ply
    format ascii 1.0           
    element vertex 74
    property double x           
    property double y           
    property double z           
    end_header
-0.441276 0.0585334 3.1541
-0.172433 1.63879 3.39558
-0.501204 -0.0413707 3.23446
-0.157033 0.40269 2.97507
-0.408771 0.466529 3.10441
-0.683366 0.146742 3.46981
-0.573898 0.156434 3.24474
-0.501617 0.431423 3.2066
-0.248086 1.40431 3.26761
-0.385712 0.912654 3.43174
-0.446017 0.57415 3.21169
-0.36405 0.71408 3.12883
-0.621289 0.212886 3.3627
-0.37338 0.916247 3.28286
-0.385733 0.822308 3.20528
-0.598775 0.0639367 3.34656
-0.323668 1.15919 3.38608
-0.30374 1.28095 3.28524
-0.453277 0.199158 3.1855
-0.0818315 0.528524 2.95875
-0.20441 0.255872 3.13755
-0.421907 0.698274 3.25309
-0.308768 1.10351 3.26324
-0.535333 0.276785 3.27262
-0.0676811 0.288756 3.01196
-0.25628 1.49428 3.38481
-0.263023 0.82856 3.12702
-0.218958 0.494103 3.07432
-0.299277 1.27977 3.44656
-0.0731266 0.00626913 3.0403
-0.0883769 0.143453 3.07317
-0.402873 0.325786 3.19447
-0.303135 1.38308 3.37931
-0.323762 0.573189 3.127
-0.33412 0.139582 3.14358
-0.248426 0.949425 3.21211
-0.219362 0.1187 3.11992
-0.226948 0.685199 3.10929
-0.103336 0.603883 3.09175
-0.168578 1.51511 3.32979
-0.0154314 1.63314 3.3887
-0.104766 0.768931 3.13
0.0470035 0.598427 3.04941
-0.132062 0.908262 3.13537
-0.169769 1.14346 3.27846
-0.183522 -0.0285212 3.12202
-0.0264223 1.31883 3.39711
-0.324492 -8.42943e-05 3.10557
0.0491205 0.0656766 3.0704
-0.326041 -0.078135 3.22113
0.0450184 0.196275 3.02246
-0.0630879 -0.10694 3.12157
-0.292745 0.379952 3.12352
-0.0398596 1.4415 3.35497
-0.0524436 1.10221 3.31643
0.175507 0.137603 3.0336
0.0199008 0.407652 2.97336
0.24795 0.250652 3.09571
0.123349 0.314047 3.05529
0.17845 0.0291689 3.13174
0.0631139 -0.0547957 3.14566
-0.0142719 0.966184 3.32645
0.268482 0.143448 3.1536
-0.0204588 0.800477 3.24638
-0.44791 0.570615 3.2053
-0.20463 1.65261 3.49493
-0.244285 0.957337 3.20314
-0.527788 0.282147 3.26087
0.160986 0.419229 3.48152
-0.0133886 1.55136 3.48944
-0.0386255 1.19301 3.38121
-0.10021 0.60052 3.09421
0.070039 0.507262 3.4812
-0.0754834 0.00341575 3.04494
