ply
    format ascii 1.0           
    element vertex 79
    property double x           
    property double y           
    property double z           
    end_header
-0.85179 -1.28909 6.50397
-1.56721 -1.94916 6.7761
-1.0736 -0.977853 6.94808
-1.32551 -1.44871 6.73477
-0.839229 -1.64639 6.44018
-1.06121 -0.44967 7.44918
-1.23834 -1.12837 6.90549
-1.44271 -1.55645 6.87905
-0.977724 -1.46596 6.46764
-1.39358 -2.02279 6.57025
-1.18855 -1.31819 6.80555
-1.0906 -0.686421 7.31049
-1.19392 -0.949229 7.24697
-1.64148 -2.0975 7.1192
-1.3517 -1.36741 6.95919
-1.24344 -1.02855 7.08179
-1.58797 -1.94482 6.99776
-1.4441 -2.20711 6.64314
-1.47989 -1.80664 6.88424
-1.06804 -0.670183 7.52114
-1.28872 -1.22617 7.09185
-1.17007 -1.04467 7.45
-1.01128 -0.546276 7.66955
-0.963643 -0.250896 7.48287
-0.833001 -0.0123689 7.78549
-1.04213 -0.346468 7.63378
-0.943373 -0.202844 7.71552
-1.39025 -2.25804 6.85903
-1.02016 -0.870846 7.56844
-1.35513 -1.64795 7.04334
-1.48049 -2.19172 7.05882
-1.36345 -2.34017 6.66164
-1.15961 -1.39051 7.25259
-1.17666 -1.15934 7.25198
-1.38958 -1.85845 6.69511
-1.30374 -1.69152 6.77222
-1.15447 -1.58506 6.67423
-1.02641 -0.864506 7.12972
-1.03435 -1.75687 6.59492
-0.874718 -2.04616 6.30495
-0.677749 -1.78892 6.36745
-1.2329 -2.07577 6.43514
-0.872878 -0.875548 6.96603
-1.23882 -1.90431 6.55922
-0.878 -1.87881 6.42472
-1.03413 -1.16331 6.82809
-0.847241 -2.24073 6.35114
-0.872897 -1.26499 6.69954
-0.826442 0.00215053 7.79482
-1.05498 -1.40622 6.6594
-0.631301 -1.25539 6.64075
-1.06682 -1.93044 6.49723
-1.21672 -2.24515 6.55536
-0.704222 -1.46311 6.41881
-0.562979 -0.0010236 7.73844
-0.837718 -1.06978 6.88608
-0.877254 -0.648037 7.30683
-0.62789 -0.273883 7.56964
-0.480236 -1.89296 6.33222
-1.02524 -2.12422 6.40712
-0.823344 -0.132061 7.6099
-0.618531 -0.494642 7.561
-0.684896 -0.747792 7.33218
-0.538836 -1.65343 6.46575
-0.675393 -2.00426 6.35809
-0.349457 -1.78151 6.47656
-0.472252 -2.10227 6.40616
-0.650778 -2.20652 6.39599
-0.545117 -0.191635 7.76986
-0.665739 -0.690749 7.53099
-0.656618 -0.949033 7.29556
-0.687867 -1.10865 7.05081
-0.317457 -1.97267 6.47919
-0.426976 -1.80393 7.16015
-0.575887 -1.43008 6.72463
-0.616326 -1.14873 7.25768
-0.667969 -1.34385 7.30626
-0.559689 -1.6563 7.18688
-0.816879 -0.957641 7.13266
