ply
    format ascii 1.0           
    element vertex 73
    property double x           
    property double y           
    property double z           
    end_header
0.00789429 -0.293643 1.16538
-0.0252129 -0.336346 1.11607
-0.260273 -0.385065 0.984956
-0.148245 0.0854785 1.29275
-0.0654429 -0.469335 1.12476
-0.128145 -0.527116 1.06949
-0.192731 -0.448464 0.995716
-0.0571539 -0.531499 1.10131
-0.126837 -0.160171 1.12457
-0.0272956 -0.407137 1.14321
-0.113915 -0.400257 1.11196
-0.0931907 -0.126097 1.18408
-0.140693 -0.265318 1.06083
-0.00970292 -0.470367 1.17429
-0.123331 -0.328352 1.09548
-0.152631 -0.428704 1.04196
-0.150422 0.00179042 1.25069
-0.201494 -0.383961 1.02199
-0.121765 -0.232993 1.11734
-0.212513 -0.269432 1.04604
-0.192842 -0.214966 1.09136
-0.184782 -0.335388 1.06416
-0.059994 -0.116302 1.25141
-0.256423 -0.337779 1.02738
-0.247393 -0.492144 0.988529
-0.323188 -0.356744 1.01213
-0.160157 -0.109926 1.1553
-0.120178 -0.0770025 1.2326
-0.186341 -0.0717545 1.19839
-0.252846 -0.0806102 1.23726
-0.202897 0.0274807 1.29275
-0.199443 -0.162392 1.13703
-0.237986 -0.033672 1.31499
-0.114596 0.139555 1.33204
-0.387558 -0.383042 1.01325
-0.181416 0.135055 1.32917
-0.16723 0.176047 1.37479
-0.217146 0.0755426 1.33683
-0.112076 0.173871 1.3998
-0.142099 0.235774 1.43579
-0.0837026 -0.199616 1.16807
-0.0790796 -0.288134 1.12968
-0.0476184 -0.26101 1.19769
-0.0982263 -0.587239 1.10691
-0.11965 -0.458711 1.08212
0.0211696 -0.368383 1.18645
0.00856116 -0.52336 1.22089
-0.131499 0.036158 1.43654
-0.0927473 0.201341 1.49599
-0.119841 -0.00821636 1.31721
-0.060332 -0.186728 1.23784
-0.102447 0.104743 1.4444
-0.142746 -0.489802 1.0155
0.00187886 -0.290948 1.25026
-0.113709 -0.0559436 1.36741
-0.0406042 -0.532481 1.16628
0.00391645 -0.435165 1.23213
-0.245487 -0.480287 0.980015
0.0063033 -0.490345 1.28271
-0.0428114 -0.578114 1.22875
-0.129281 0.144367 1.50325
-0.0791527 -0.59143 1.1703
-0.124212 -0.125952 1.35683
-0.0957728 -0.19527 1.30697
-0.170331 0.177689 1.37994
-0.311681 -0.424534 0.989857
-0.209127 -0.269734 1.04515
-0.315218 -0.353422 1.00852
-0.182518 0.136232 1.33535
-0.376075 -0.376502 1.00452
-0.197738 -0.163125 1.13678
-0.203673 0.0277101 1.29136
-0.359336 -0.352814 1.0648
