ply
    format ascii 1.0           
    element vertex 69
    property double x           
    property double y           
    property double z           
    end_header
-0.436197 -0.482219 2.93547
-0.64558 -0.835702 2.67925
-0.404942 -1.06617 2.52649
-0.715179 -0.942797 2.66664
-0.756683 -1.19347 2.67404
-0.563793 -0.448711 2.97057
-0.709443 -0.734536 2.83928
-0.351534 -1.31891 2.63422
-0.633116 -1.03203 2.63084
-0.882918 -1.18083 2.7129
-0.270911 -0.967027 2.5891
-0.529116 -1.00477 2.56707
-0.555476 -0.890256 2.60163
-0.202974 -1.26832 2.64436
-0.633033 -1.22867 2.64386
-0.736179 -1.30573 2.64779
-0.479495 -0.735829 2.7616
-0.0797886 -1.25206 2.65585
-0.404281 -0.956021 2.59964
-0.251804 -1.40563 2.59883
-0.558562 -0.638598 2.81869
-0.798804 -1.0975 2.77591
-0.670716 -1.40665 2.68486
-0.508795 -1.13306 2.57836
-0.600991 -0.768807 2.76971
-0.502276 -1.24773 2.62295
-0.424353 -0.630077 2.83491
-0.911433 -1.12929 2.84052
-0.613009 -0.605076 2.9317
-0.923224 -1.25219 2.81063
-0.732485 -0.856869 2.8751
-0.831845 -1.29437 2.72744
-0.349217 -0.724725 2.79083
-0.688202 -1.10433 2.72548
-0.750438 -0.790396 2.96681
-0.573744 -1.14717 2.70772
-0.519327 -0.842805 2.70951
-0.656989 -0.87202 2.80189
-0.683631 -0.698104 2.96754
-0.157024 -1.37187 2.68181
-0.422995 -0.801116 2.65553
-0.228653 -1.09133 2.5761
-0.300925 -0.787696 2.69943
-0.32484 -0.90559 2.69561
-0.484631 -0.417725 3.08042
-0.00557746 -1.22621 2.75544
-0.381793 -0.438926 3.16205
-0.136024 -1.14772 2.69506
-0.353953 -0.595168 2.96042
-0.0947324 -1.1581 2.81992
-0.374556 -0.497219 3.04502
-0.218331 -1.02125 2.88089
-0.246894 -0.801958 2.90408
-0.302735 -0.672478 3.04864
-0.324089 -0.706475 2.9044
-0.0501002 -1.33751 2.73871
-0.283251 -0.945057 2.80309
-0.254606 -1.01832 2.70953
-0.268543 -0.789248 3.00798
-0.670003 -1.39133 2.67764
-0.879855 -1.17689 2.71058
-0.484729 -0.613901 2.93089
-0.625157 -1.22811 2.64807
-0.517569 -0.843681 2.71003
-0.625235 -1.03065 2.64152
-0.906763 -1.13281 2.83291
-0.504178 -1.133 2.58144
-0.794959 -1.106 2.78145
-0.680787 -0.699884 2.96977
