ply
    format ascii 1.0           
    element vertex 76
    property double x           
    property double y           
    property double z           
    end_header
-0.277582 -0.464316 1.87131
-0.148456 0.132461 2.30847
-0.212825 -0.381698 1.87727
-0.416951 -0.472 1.97089
-0.459557 -0.550692 2.00236
-0.152724 -0.733457 1.90664
-0.316991 -0.587434 1.88838
-0.252881 -0.257245 1.97742
-0.0371877 -0.773217 1.87931
-0.353391 -0.909304 1.86216
-0.159022 -0.47787 1.87091
-0.0212318 -0.509613 1.82759
-0.191002 -0.0338172 2.13404
-0.0426212 -0.63571 1.81559
-0.302828 -0.757084 1.88702
-0.477479 -0.763133 1.95004
0.0877113 -0.61689 1.86694
-0.527795 -0.734322 2.05844
-0.134462 -0.578775 1.86144
-0.464463 -0.854358 1.90458
0.0814057 -0.822499 1.94013
-0.341736 -0.315765 2.04362
-0.0401376 0.0441045 2.27348
-0.222725 -0.136519 2.08637
-0.173274 -0.313728 1.94339
-0.114589 -0.245938 1.99821
-0.0854462 -0.0120157 2.15909
-0.380217 -0.747444 1.95261
-0.065734 -0.336554 1.98422
-0.279006 -0.361375 1.95343
-0.107631 -0.111021 2.11733
-0.208756 0.0566361 2.26955
-0.38916 -0.632414 2.02945
-0.142781 -0.179066 2.0612
-0.338005 -0.498042 1.92429
-0.533765 -0.825439 1.9995
-0.321227 -0.661487 1.94597
-0.179312 0.159663 2.40442
-0.287447 -0.231403 2.0657
-0.557311 -0.796799 2.12462
-0.26787 -0.15101 2.16174
-0.350955 -0.416928 2.02337
-0.250789 -0.0637482 2.20007
-0.21553 -0.548381 1.93308
-0.0671008 -0.497752 1.93008
-0.0162146 -0.869166 1.93072
-0.0227712 -0.0943132 2.18822
0.0107255 -0.287374 2.15449
-0.129799 -0.409101 1.9492
-0.0388527 -0.195765 2.17046
-0.0298793 -0.431845 2.00662
-0.0122198 -0.357067 2.0814
0.0420764 -0.524527 1.9208
-0.0722156 -0.258286 2.08887
0.0692036 -0.724097 1.95936
0.126598 -0.778118 2.0971
-0.0625094 -0.0305971 2.3616
0.114511 -0.684907 2.0477
0.0197478 -0.514953 2.15304
0.00107065 -0.468901 2.08925
0.0295926 -0.594795 2.09517
-0.017932 -0.401405 2.17276
-0.0765755 0.0845082 2.37299
-0.183395 0.168558 2.39894
-0.469093 -0.755617 1.95574
-0.0918173 0.172176 2.44259
-0.452741 -0.846244 1.90955
-0.129614 -0.578035 1.8575
-0.277448 -0.229038 2.06575
-0.520675 -0.725519 2.05918
-0.367626 -0.743455 1.96086
-0.407129 -0.47311 1.98155
-0.148351 -0.736006 1.91774
-0.450796 -0.547249 2.01177
-0.343996 -0.901889 1.86706
-0.270208 -0.359215 1.9577
