ply
    format ascii 1.0           
    element vertex 79
    property double x           
    property double y           
    property double z           
    end_header
-0.652755 -0.484674 5.48443
-0.177056 -1.63222 4.59053
-0.496913 -1.84563 4.58515
-0.611889 -1.09801 4.81847
-0.477767 -1.26545 4.75437
-0.828252 -1.46879 4.65011
-0.359848 -1.53197 4.66604
-0.673705 -1.58362 4.638
-0.525795 -1.67292 4.64246
-0.230551 -1.8359 4.57207
-0.333415 -1.67977 4.60702
-0.45714 -1.05168 4.88827
-0.554533 -0.829634 5.0055
-0.798195 -1.6998 4.63986
-0.73631 -0.893816 5.03768
-0.951341 -1.57286 4.73569
-0.445094 -0.741331 5.1398
-0.513057 -1.48765 4.70163
-0.73756 -1.05305 4.92162
-0.366389 -1.38153 4.71445
-0.797914 -1.33951 4.8608
-0.728571 -0.686769 5.28917
-0.595999 -0.967016 4.93794
-0.333773 -1.22627 4.91338
-0.655682 -1.78421 4.65129
-0.391654 -0.950743 4.99805
-0.589184 -1.36303 4.8068
-0.532179 -0.643791 5.24419
-0.218835 -1.22061 5.08481
-0.635226 -1.95963 4.68525
-0.450371 -1.99454 4.64236
-0.0906185 -1.75849 4.60502
-0.697153 -1.45154 4.74229
-0.630369 -0.79465 5.16221
-0.493522 -1.21479 4.88144
-0.352183 -1.8409 4.66527
-0.35922 -1.11925 5.03868
-0.154981 -1.52565 4.85335
-0.24408 -1.5633 4.72059
-0.0619091 -1.68087 4.75082
-0.304247 -0.995188 5.14409
-0.333324 -0.856619 5.24216
-0.314837 -1.3764 4.86963
-0.167253 -1.41983 4.91901
-0.695625 -1.22032 4.91243
-0.78201 -0.824217 5.23133
-0.757959 -0.445091 5.62364
-0.742302 -0.964175 5.37724
-0.78104 -0.822469 5.38981
-0.592899 -0.970669 4.85024
-0.596409 -0.83656 4.96885
-0.812506 -1.38712 5.14116
-0.88788 -1.65709 4.98803
-0.645238 -0.338226 5.47691
-0.751396 -0.27408 5.6199
-0.792922 -1.05816 5.11414
-0.833627 -1.30532 4.68698
-0.720481 -0.748585 5.07075
-0.964569 -1.39352 4.75519
-0.729757 -0.907499 4.93504
-0.479882 -1.13516 4.80613
-0.808138 -1.17177 4.8841
-0.84308 -1.64801 4.77438
-0.88641 -1.67516 5.16321
-0.811508 -1.52955 4.66837
-0.657288 -0.480647 5.36751
-0.680618 -1.77755 4.72662
-0.551625 -0.705547 5.02776
-0.755562 -1.10457 5.28766
-0.845563 -1.77421 4.8606
-0.230549 -1.4847 4.64365
-0.859544 -1.28271 5.02401
-0.856683 -1.47441 5.01837
-0.728144 -0.918186 5.09862
-0.640296 -0.651162 5.16806
-0.604736 -1.20973 4.83228
-0.539431 -0.519838 5.24371
-0.850823 -1.34337 4.88258
-0.709936 -0.535733 5.25466
