ply
    format ascii 1.0           
    element vertex 80
    property double x           
    property double y           
    property double z           
    end_header
-0.0150587 -0.401654 2.47505
0.0968002 -0.57716 2.41255
0.0161425 0.994896 2.70142
-0.0892634 -0.0977177 2.31016
-0.0354859 0.112712 2.19196
0.507089 -0.157535 2.17253
0.334299 -0.466161 2.28239
0.305416 -0.313765 2.30693
0.239072 -0.580418 2.33532
0.414133 0.146905 2.31702
0.096463 -0.416736 2.35981
0.0447177 -0.0115448 2.2652
-0.0146411 0.81519 2.72165
-0.00195735 0.272289 2.15689
0.556447 -0.292574 2.16928
0.530765 0.00338358 2.30142
0.280287 -0.149304 2.31804
0.162508 -0.105676 2.22763
0.0549031 -0.1711 2.32665
0.152792 0.107083 2.24625
0.171432 -0.282547 2.35624
0.463803 -0.413849 2.22314
-0.103452 0.369066 2.22519
0.417265 -0.22899 2.28968
0.596216 -0.450463 2.24678
-0.0505716 0.675959 2.69457
0.344366 0.0338615 2.37627
0.567886 -0.569485 2.39562
0.384512 -0.589736 2.3687
0.380182 0.273311 2.3978
0.642378 -0.171436 2.20927
0.481798 -0.485423 2.34242
0.113414 0.253557 2.28182
0.227645 -0.459378 2.42494
0.189313 0.622534 2.54702
0.677555 -0.304497 2.22375
0.193602 -0.0154907 2.33319
0.263017 0.171925 2.33891
0.210208 0.48241 2.50692
0.028183 0.382553 2.27952
-0.0832984 1.2537 2.88048
0.102224 1.04712 2.81147
0.118084 1.29272 2.99522
0.0823484 0.630811 2.63546
0.219355 1.01513 2.93279
0.296945 0.563335 2.6368
0.0666691 0.515547 2.55156
0.12166 0.782265 2.64156
-0.150548 0.21741 2.2335
-0.0504892 0.676869 2.68506
-0.0397162 0.537739 2.64834
0.00463084 -0.288177 2.59867
-0.140416 0.56931 2.77307
-0.116614 -0.399133 2.6102
-0.111478 0.92712 2.78876
0.47572 -0.128431 2.32783
-0.0297916 -0.180487 2.47787
-0.104218 0.0599176 2.32226
-0.0600726 1.08162 2.81849
-0.147326 0.817391 2.90309
-0.17825 0.171932 2.41507
-0.0955412 -0.249574 2.69997
-0.145189 -0.373871 2.76444
-0.12373 0.415789 2.71299
-0.138662 0.246139 2.56385
-0.0846241 1.26015 2.90133
0.0926384 -0.576151 2.57354
-0.160879 0.323629 2.3559
-0.125214 -0.0251788 2.45788
-0.0550938 0.396468 2.56284
0.459097 -0.403043 2.20621
0.0718886 0.407794 2.46001
0.052346 1.19555 2.89233
0.136343 0.885228 2.76367
0.415889 -0.231606 2.28146
0.152376 0.114339 2.23299
0.383415 0.270094 2.39299
0.590437 -0.443587 2.23981
0.0259241 0.380456 2.27365
0.643893 -0.169751 2.20792
