ply
    format ascii 1.0           
    element vertex 69
    property double x           
    property double y           
    property double z           
    end_header
-0.754217 -0.963639 1.88012
-0.597962 0.367596 2.22745
-0.678667 -0.670368 1.91781
-0.598082 -0.977054 1.84569
-0.309963 -0.631121 1.93517
-0.453705 -0.370726 1.97307
-0.501172 0.635352 2.28967
-0.557768 -0.780351 1.88705
-0.104651 -0.880529 1.98112
-0.433008 -1.07614 1.87009
-0.427891 -0.904816 1.83329
-0.438017 -0.524243 1.93696
-0.604202 -0.521805 1.93659
-0.498963 0.237669 2.20427
-0.498465 -0.0503936 2.14602
-1.09202 -0.709764 2.14664
-0.635702 0.0118504 2.15794
-0.4002 -0.749485 1.87272
-0.821489 -0.859879 1.9716
-0.601284 -0.155694 2.13834
-0.90738 -0.969627 2.00973
-0.777722 -0.196177 2.20691
-1.15368 -0.819802 2.11128
-0.7804 0.0227931 2.21396
-0.684017 -0.289895 2.10593
-1.00778 -0.868036 2.07856
-0.804867 -0.614392 1.98833
-0.456867 0.0656519 2.24237
-0.66598 0.142718 2.23703
-0.745128 -0.48136 2.02365
-0.95246 -0.694544 2.17153
-0.694528 0.307641 2.33349
-0.670994 -0.863522 1.9446
-0.783758 -0.736647 2.03171
-0.897249 -0.795775 2.07853
-0.596706 -0.390879 2.02055
-0.616677 -1.11107 2.0512
-0.848116 -0.552076 2.11959
-0.505003 -0.65257 1.96648
-0.781202 -0.398916 2.17721
-0.741685 -1.12635 2.1691
-1.13139 -0.93307 2.20712
-0.745346 -0.101708 2.30849
-0.975608 -0.955573 2.24138
-0.861846 -0.495602 2.22382
-0.615832 0.527267 2.35126
-0.286841 -0.477501 1.96598
-0.510882 -0.293675 2.08859
-0.300525 -0.983517 1.89326
-0.144972 -0.506976 2.02839
-0.167965 -1.042 1.96427
0.0179739 -0.746219 2.13377
-0.236401 -0.387563 2.09081
-0.265897 -0.778992 1.98197
-0.121529 -0.750876 2.05622
-0.252254 -0.911408 2.0088
-0.399661 -0.745768 1.87128
-0.347611 -0.312151 2.24465
-0.103281 -0.665239 2.1591
-0.454141 -0.220412 2.19482
-0.0127732 -0.667095 2.2639
-0.44785 0.536026 2.43358
-1.00655 -0.864309 2.07738
-1.09055 -0.717838 2.14295
-1.14927 -0.821503 2.1031
-0.777067 -0.398908 2.18305
-0.846961 -0.549921 2.11333
-0.69458 0.311316 2.3394
-0.950467 -0.694562 2.17779
