ply
    format ascii 1.0           
    element vertex 75
    property double x           
    property double y           
    property double z           
    end_header
-0.182812 0.165025 1.03954
-0.12358 -0.256904 0.776849
-0.142644 0.133477 1.01241
-0.161357 0.259596 1.08008
-0.189776 0.206036 1.09601
-0.178559 0.0475714 0.983593
-0.165551 -0.166575 0.838116
-0.092123 -0.0945108 0.843747
-0.0708486 -0.21472 0.769493
-0.198881 -0.247954 0.845501
-0.303307 -0.279574 0.918781
-0.175762 -0.269432 0.800565
-0.120046 -0.189102 0.808556
-0.105464 -0.0469124 0.870779
-0.204059 0.126581 1.07352
-0.208101 -0.164785 0.875485
-0.209195 -0.0389515 0.987258
-0.194539 -0.116171 0.896991
-0.179588 -0.0529539 0.937971
-0.191573 0.0823974 1.02325
-0.128489 0.0425259 0.963278
-0.214697 -0.298763 0.854745
-0.216059 -0.156379 0.928749
-0.149764 -0.0720761 0.893851
-0.184402 -0.208926 0.882311
-0.198218 -0.102757 0.962336
-0.121914 -0.0324919 0.924034
-0.207583 -0.145305 0.980097
-0.196685 -0.00805597 1.03241
-0.180887 -0.060543 1.04033
-0.224154 0.0330324 1.01171
-0.283472 -0.236285 0.938863
-0.103438 -0.320494 0.838979
-0.149651 -0.231555 0.82605
-0.0406709 -0.118532 0.822988
-0.0689224 -0.162208 0.797826
-0.149604 -0.11043 0.853665
-0.156519 -0.00358183 0.957323
-0.0574919 -0.277287 0.766372
-0.0403725 -0.0672409 0.849722
-0.104581 -0.146144 0.841207
-0.113871 0.0783035 1.00585
-0.0156113 -0.23602 0.775806
0.0161426 -0.0678884 0.857909
0.0393571 -0.247484 0.783205
0.0526847 -0.189578 0.803557
0.0987654 -0.141126 0.858563
0.0438791 -0.151042 0.841395
-0.0105358 -0.168651 0.821907
-0.0967097 -0.0147014 0.961784
0.00581147 -0.215178 0.815233
-0.129397 0.221913 1.1199
-0.0194676 -0.0410631 0.893655
0.0940452 -0.132043 0.9183
-0.0501998 -0.0391658 0.963826
0.00205984 -0.116667 0.870869
0.0529116 -0.129589 0.883038
-0.110683 0.0153264 1.00241
-0.118394 0.10679 1.04963
0.0805509 -0.192891 0.849895
0.0737965 -0.247111 0.83687
0.00222771 -0.328931 0.818299
-0.284049 -0.234604 0.930077
-0.299894 -0.272111 0.912147
-0.119381 -0.038404 0.923339
-0.064204 -0.0669832 0.904444
-0.206503 -0.165627 0.874503
-0.203807 0.12676 1.0735
-0.19296 -0.117237 0.894636
-0.252017 -0.271604 0.889638
-0.217485 -0.290969 0.848423
-0.219129 -0.240681 0.892341
-0.238837 -0.214922 0.930171
-0.199333 -0.0995002 0.951056
-0.21753 -0.153277 0.919801
