ply
    format ascii 1.0           
    element vertex 103
    property double x           
    property double y           
    property double z           
    end_header
-0.101503 -0.180395 0.714308
-0.123414 -0.0660815 0.810619
-0.082555 -0.286378 0.707039
-0.0405455 -0.269661 0.728496
-0.0763897 -0.249491 0.716353
-0.123572 -0.278439 0.707148
-0.0876507 0.171305 0.988893
-0.136342 -0.134157 0.759224
-0.104565 -0.00859321 0.863912
-0.229556 -0.266248 0.727833
-0.0954999 -0.0950568 0.804735
-0.101574 0.134222 0.928178
-0.115241 0.0275911 0.880827
-0.16348 -0.259873 0.709226
-0.083991 0.0961851 0.912721
-0.0943836 -0.214626 0.72147
-0.0543254 -0.23574 0.747243
-0.135572 -0.220692 0.7275
-0.120544 0.105454 0.912151
-0.0869796 -0.0667933 0.827935
-0.153898 -0.306433 0.70312
-0.104591 -0.163359 0.751594
-0.138463 -0.181051 0.728664
-0.230004 -0.295982 0.722435
-0.108904 -0.0447268 0.838939
-0.133143 0.134767 0.944346
-0.196635 -0.181793 0.785171
-0.201526 -0.210606 0.761814
-0.191435 -0.291146 0.718023
-0.17208 -0.232546 0.739779
-0.138212 -0.00855397 0.873852
-0.151329 -0.0947641 0.82098
-0.159479 -0.120953 0.793489
-0.203255 -0.261029 0.747186
-0.164024 -0.198257 0.749782
-0.0930966 -0.3155 0.737903
-0.14156 -0.0413283 0.838407
-0.106645 -0.242236 0.743286
-0.197022 -0.167022 0.821924
-0.169371 -0.157834 0.787197
-0.142648 0.0896526 0.94383
-0.0824629 -0.139691 0.779772
-0.132545 0.0583841 0.927108
-0.0624264 -0.0934202 0.826067
-0.115057 -0.121913 0.788703
-0.121321 -0.316969 0.723578
-0.0868354 0.0608487 0.921125
-0.0155814 -0.257844 0.782818
-0.0746048 -0.0392731 0.850557
-0.0662 0.0194943 0.934401
-0.0579396 -0.304204 0.735018
-0.0878117 0.0214635 0.904195
-0.0711126 -0.167178 0.805398
-0.0690329 -0.127326 0.810626
-0.0556421 -0.0631639 0.867328
-0.0416906 -0.23717 0.780264
-0.0834607 0.0370921 0.97421
-0.0749661 0.142934 1.00785
-0.0567743 -0.119673 0.851993
-0.0845653 0.138228 0.961603
-0.0758485 0.102083 0.946432
-0.0672815 -0.153252 0.840269
-0.0717644 -0.0316276 0.887883
-0.0302157 -0.271414 0.759812
-0.0390302 -0.296114 0.772824
-0.083757 0.0697434 0.953838
-0.0935697 -0.0117521 0.926765
-0.0746616 -0.0403531 0.926738
-0.0803432 0.108748 0.988437
-0.118177 0.104098 0.910788
-0.130627 0.0595977 0.926541
-0.0809201 -0.141548 0.780391
-0.0939565 -0.097105 0.807276
-0.108318 -0.0464961 0.841568
-0.0497752 -0.233115 0.742308
-0.122236 -0.0684228 0.814675
-0.139372 -0.0451481 0.844063
-0.103075 -0.167176 0.756151
-0.11337 -0.123214 0.792226
-0.0915738 -0.217615 0.724428
-0.0997349 -0.184965 0.719021
-0.0729175 -0.251378 0.717448
-0.134631 -0.138213 0.764675
-0.132488 -0.223274 0.731739
-0.149741 -0.0981014 0.824477
-0.160299 -0.264452 0.716119
-0.149571 -0.307335 0.707783
-0.187283 -0.290229 0.723494
-0.19904 -0.213329 0.767031
-0.225498 -0.267222 0.732897
-0.132565 0.13337 0.950208
-0.194639 -0.183137 0.789353
-0.169071 -0.234134 0.744858
-0.159105 -0.0686798 0.843793
-0.200511 -0.260379 0.751994
-0.158006 -0.123388 0.798924
-0.143552 0.0874653 0.945973
-0.226233 -0.294939 0.727606
-0.167709 -0.158168 0.790901
-0.135929 -0.18589 0.735415
-0.161035 -0.199395 0.753927
-0.19363 -0.165946 0.818135
-0.137737 -0.0108462 0.876427
