ply
    format ascii 1.0           
    element vertex 87
    property double x           
    property double y           
    property double z           
    end_header
0.0081299 0.00505784 0.781662
-0.0789687 -0.0352473 0.574635
0.0565653 0.0281345 0.879028
0.0410026 0.0188481 0.851507
0.0408549 0.0353303 0.895175
-0.0939576 -0.0271876 0.664401
-0.0513006 -0.00290807 0.729984
-0.0620873 -0.0101479 0.691433
-0.0246939 -0.00170917 0.738744
-0.0171796 -0.000752309 0.783687
-0.115086 -0.0340938 0.627327
-0.0348025 -0.00447704 0.71486
-0.0172995 0.0292966 0.817856
-0.0726133 -0.0211137 0.671096
-0.115553 -0.0428293 0.568977
0.00178972 -0.0145322 0.744956
0.0199497 0.0326205 0.863735
-0.113791 -0.0417177 0.654776
-0.0665228 -0.0138727 0.714724
-0.0428458 -0.022136 0.679603
-0.0655912 -0.0531491 0.567966
-0.0482922 -0.00850597 0.758539
-0.00620116 0.0126896 0.808801
0.0108844 0.0310885 0.831706
-0.10792 -0.0396124 0.595493
-0.0407824 -0.00383832 0.785238
0.00641527 0.0332164 0.87033
-0.052203 -0.0356724 0.662115
-0.0163377 -0.0179843 0.717917
-0.0751605 -0.0339297 0.648013
-0.0943054 -0.0460017 0.629884
-0.134508 -0.0365634 0.637507
-0.0813818 -0.0225794 0.697556
-0.128774 -0.0469212 0.616801
-0.115106 -0.0462994 0.681923
0.0173541 0.00936497 0.821888
-0.0823204 -0.0270865 0.723879
-0.0487958 -0.0602862 0.655916
-0.0877934 -0.0573038 0.558256
-0.0961775 -0.0393489 0.565947
-0.113749 -0.0641813 0.557478
-0.00206501 -0.042156 0.724849
-0.135191 -0.0640551 0.5709
-0.151109 -0.09347 0.611119
-0.153103 -0.104128 0.581089
-0.132845 -0.0971165 0.570879
-0.128105 -0.0502849 0.590487
-0.143105 -0.0806958 0.58732
-0.133287 -0.0704724 0.627046
-0.153257 -0.118933 0.603628
-0.160191 -0.139618 0.613747
-0.157558 -0.130257 0.631395
-0.131485 -0.104928 0.658549
-0.0858723 -0.0523036 0.717387
-0.0655569 -0.0183177 0.735351
-0.136114 -0.0946467 0.633643
-0.131653 -0.0580107 0.650249
-0.0530776 -0.0259617 0.770339
-0.122488 -0.0660269 0.608349
-0.117651 -0.0974186 0.677242
-0.127889 -0.0798262 0.652082
-0.140922 -0.120385 0.629349
-0.10805 -0.0766049 0.682648
-0.102588 -0.059833 0.701576
-0.0100737 0.0116172 0.860059
0.0034002 0.0316045 0.845652
-0.07776 -0.0499042 0.739759
-0.0858518 -0.0870698 0.708286
-0.0712148 -0.0329777 0.746341
-0.112882 -0.0406883 0.653722
-0.143079 -0.142487 0.639486
-0.118976 -0.122911 0.652149
-0.0161479 -0.00927918 0.83672
-0.0419434 -0.0460992 0.765156
-0.114877 -0.0643432 0.662532
-0.0737913 -0.0730276 0.7275
-0.100589 -0.0998387 0.689815
-0.0206278 -0.0290312 0.786772
-0.0947633 -0.0389261 0.686221
-0.0886094 -0.0377015 0.586664
-0.0613842 -0.051993 0.749503
-0.114786 -0.120851 0.670635
-0.0159676 0.0108057 0.798465
-0.0386521 -0.0258896 0.780633
-0.0639691 -0.0141763 0.691144
-0.0340938 -0.00813821 0.737912
-0.0748972 -0.0247169 0.672248
