ply
    format ascii 1.0           
    element vertex 77
    property double x           
    property double y           
    property double z           
    end_header
-0.110796 -0.0244353 0.452296
-0.112084 0.00106161 0.450966
-0.128471 -0.0692514 0.460866
-0.125327 0.00929055 0.464589
-0.13074 -0.198081 0.448523
-0.124319 -0.146952 0.439357
-0.132011 -0.0183254 0.461231
-0.115084 -0.273721 0.409602
-0.140304 -0.214673 0.459232
-0.113741 -0.181144 0.436778
-0.120893 -0.220459 0.446879
-0.143128 -0.0551973 0.46212
-0.124376 -0.0954006 0.461063
-0.0944166 -0.279823 0.410554
-0.133719 -0.175509 0.446117
-0.144323 -0.25135 0.456247
-0.124562 -0.24637 0.452539
-0.121137 -0.12589 0.44706
-0.131037 -0.0407386 0.454225
-0.094784 -0.063489 0.449749
-0.133161 -0.0999664 0.478784
-0.100579 -0.118008 0.440898
-0.113643 -0.0847966 0.442716
-0.135966 -0.140869 0.453656
-0.108929 -0.202343 0.440962
-0.105308 -0.144055 0.439312
-0.116477 -0.263628 0.427801
-0.114545 -0.0539642 0.456851
-0.136888 -0.162486 0.461401
-0.156117 -0.255226 0.474871
-0.13332 -0.29751 0.431297
-0.0946475 -0.164576 0.439474
-0.14234 -0.235509 0.472815
-0.142447 -0.0315417 0.475543
-0.0970971 -0.0406039 0.457614
-0.138524 -0.184771 0.466503
-0.141927 -0.218809 0.492152
-0.143219 -0.270894 0.466943
-0.104245 -0.104027 0.453673
-0.0861913 -0.14506 0.445871
-0.138373 -0.168409 0.48391
-0.12101 -0.288355 0.419012
-0.105029 -0.235769 0.446922
-0.0945643 -0.183101 0.444111
-0.0947669 -0.216714 0.4464
-0.13944 -0.29059 0.455149
-0.124772 -0.299026 0.503482
-0.132768 -0.272897 0.439729
-0.104159 -0.297931 0.420366
-0.131535 -0.312095 0.456398
-0.115503 -0.324901 0.494917
-0.127241 -0.308944 0.479541
-0.131337 -0.272572 0.488545
-0.102608 -0.296119 0.537321
-0.133398 -0.122996 0.471432
-0.133665 -0.200915 0.476945
-0.135658 -0.140677 0.454092
-0.141632 -0.251651 0.493134
-0.121195 -0.118981 0.488771
-0.106961 -0.312572 0.514869
-0.121769 -0.180722 0.495592
-0.117737 -0.159518 0.499223
-0.106777 -0.257452 0.522152
-0.114668 -0.275062 0.506559
-0.122191 -0.254067 0.504183
-0.11783 -0.0545698 0.49038
-0.125641 -0.201789 0.502669
-0.115643 -0.222722 0.505362
-0.102645 -0.288576 0.521749
-0.128057 -0.147563 0.491051
-0.0847864 -0.242118 0.526724
-0.144318 -0.23617 0.474638
-0.135384 -0.297014 0.43294
-0.101162 -0.122984 0.489612
-0.100704 -0.173406 0.503648
-0.0952 -0.195574 0.509808
-0.12694 -0.236745 0.493654
