ply
    format ascii 1.0           
    element vertex 71
    property double x           
    property double y           
    property double z           
    end_header
-0.338611 0.121015 2.33461
0.0653075 -0.232538 2.46677
0.12363 -0.277643 2.35844
-0.0731478 -0.0492449 2.28431
-0.503364 0.290133 2.44207
-0.0447954 -0.12522 2.11021
-0.258022 0.0377386 2.34538
-0.581914 0.329185 2.35931
-0.419858 0.187581 2.39341
-0.0198558 -0.137409 2.30981
-0.182055 0.0040905 2.28149
0.15743 -0.363978 2.28875
-0.181401 -0.0859175 2.46178
0.0990998 -0.408732 2.08832
0.11929 -0.340246 2.45798
-0.250422 0.0105939 2.45422
-0.00376594 -0.37301 1.99594
-0.00238148 -0.104228 2.20854
-0.0330933 -0.177667 2.45597
0.031792 -0.199988 2.16459
0.170231 -0.471859 2.22459
0.0438978 -0.218367 2.27811
-0.237253 -0.00997871 2.17613
-0.515539 0.240405 2.31099
-0.0931154 -0.0435706 2.17472
0.09363 -0.294624 2.2186
0.0149026 -0.349803 2.0942
0.0708703 -0.440879 1.98539
-0.118949 -0.277382 2.0214
0.115129 -0.484298 2.04877
-0.218889 -0.249853 2.02605
0.0790031 -0.406442 2.20813
-0.0345449 -0.254982 2.09199
-0.695311 0.322135 2.33771
0.159838 -0.434042 2.34289
-0.104643 -0.57337 1.9047
0.0822 -0.585349 2.105
0.0975013 -0.494699 2.15248
-0.51348 0.0964138 2.23079
-0.622369 0.27839 2.26251
-0.193274 -0.453499 1.94471
-0.441326 0.150016 2.28462
-0.0879627 -0.439944 1.9373
-0.602002 0.15248 2.26865
-0.145209 -0.377068 1.99369
-0.24039 -0.152086 2.14777
-0.205085 -0.52961 1.88845
-0.284874 -0.333758 1.99911
-0.142811 -0.132991 2.14333
-0.431078 0.025503 2.25565
-0.333756 -0.0784978 2.16513
-0.150637 -0.218291 2.10045
0.0447117 -0.556513 2.02575
-0.0318161 -0.602273 1.97608
-0.0145286 -0.505223 1.97502
-0.11531 -0.655488 1.97777
-0.521 -0.0278735 2.27542
-0.208299 -0.624336 1.93329
-0.320963 -0.607501 1.9634
-0.475592 -0.127353 2.30516
-0.32891 -0.216925 2.16322
-0.278562 -0.51727 1.98029
-0.312044 0.00821125 2.25691
-0.699123 0.328437 2.34007
0.0148631 -0.352682 2.09498
-0.23373 -0.424298 2.01905
-0.656765 0.360781 2.44376
-0.418788 0.183721 2.39422
0.0995423 -0.407106 2.09118
-0.748002 0.387772 2.45046
-0.179187 0.0022743 2.28274
