ply
    format ascii 1.0           
    element vertex 92
    property double x           
    property double y           
    property double z           
    end_header
-0.120147 -0.0797928 1.13215
-0.220182 -0.404457 1.06403
-0.13351 -0.0494157 1.18335
-0.233891 -0.289192 1.12246
-0.216015 -0.272343 1.09005
-0.200651 -0.356825 0.99589
-0.22121 -0.35787 1.08044
-0.163325 -0.244495 1.04318
-0.168436 -0.327042 1.00266
-0.0743852 -0.367721 0.95527
-0.119097 -0.42029 0.967628
-0.200394 -0.298545 1.06014
-0.149607 -0.295113 0.999819
-0.192749 -0.24074 1.06773
-0.177438 -0.200297 1.08283
-0.106013 -0.376128 0.974256
-0.187741 -0.400113 1.0458
-0.189483 -0.194611 1.13612
-0.168285 -0.354942 0.982815
-0.175585 -0.307748 1.03391
-0.13618 -0.319008 0.974742
-0.150675 -0.155109 1.09539
-0.177372 -0.273803 1.05659
-0.161596 -0.212424 1.05389
-0.155621 -0.275601 1.03117
-0.139122 -0.385967 0.988565
-0.149633 -0.179415 1.06914
-0.128274 -0.234873 1.04408
-0.0714729 -0.344918 0.985527
-0.122167 -0.113234 1.12854
-0.123172 -0.266246 1.02199
-0.209883 -0.438102 1.06422
-0.0965853 -0.402669 0.954936
-0.0356388 -0.346286 0.972411
-0.0416093 -0.380062 0.964908
-0.175902 -0.387202 0.994142
-0.117867 -0.179801 1.07571
-0.136177 -0.351818 0.986982
-0.0954294 -0.251165 1.03998
-0.132155 -0.413464 1.00266
-0.12829 -0.442802 1.01601
-0.0462175 -0.41447 0.982379
-0.105725 -0.333018 0.991615
-0.11088 -0.296376 0.997311
-0.119012 -0.140063 1.10861
-0.151817 -0.107168 1.14517
-0.096229 -0.163513 1.09449
-0.0703468 -0.102966 1.14818
-0.0918934 -0.132264 1.12495
-0.0859903 -0.0702788 1.12156
-0.164968 -0.166371 1.13732
-0.217305 -0.260214 1.14206
-0.194372 -0.2267 1.10199
-0.223568 -0.313432 1.08779
-0.155382 -0.135107 1.12699
-0.19751 -0.339757 1.03171
-0.105425 -0.0347785 1.1638
-0.232414 -0.330783 1.12975
-0.168793 -0.180421 1.11018
-0.226762 -0.423334 1.09609
-0.199025 -0.331663 1.06731
-0.0889645 -0.0478955 1.13619
-0.191836 -0.230219 1.13928
-0.166373 -0.133506 1.15802
-0.212676 -0.324907 1.16956
-0.2114 -0.360746 1.15682
-0.138087 -0.104788 1.19674
-0.211482 -0.358519 1.11682
-0.160112 -0.166483 1.16874
-0.204916 -0.392122 1.10064
-0.14951 -0.140639 1.18572
-0.137414 -0.174401 1.19307
-0.21903 -0.302845 1.14656
-0.191456 -0.385587 1.13469
-0.145323 -0.201152 1.17176
-0.178581 -0.251231 1.16594
-0.207674 -0.441847 1.06291
-0.198084 -0.423231 1.11778
-0.15871 -0.417739 1.15053
-0.170092 -0.218086 1.15981
-0.142842 -0.403005 1.18439
-0.193579 -0.285151 1.15862
-0.177846 -0.454938 1.087
-0.167866 -0.445145 1.12653
-0.127404 -0.42345 1.16605
-0.166374 -0.386098 1.16311
-0.125357 -0.0857783 1.17077
-0.135145 -0.367356 1.16941
-0.0979136 -0.127088 1.19285
-0.103665 -0.0587438 1.18903
-0.2009 -0.298368 1.06029
-0.125967 -0.417671 0.968904
