ply
    format ascii 1.0           
    element vertex 91
    property double x           
    property double y           
    property double z           
    end_header
-0.458146 0.0274499 2.6717
-0.598425 -0.688099 2.54703
-0.532792 -0.344245 2.53085
-0.613509 -0.586843 2.55741
-0.4661 0.140523 2.72797
-0.519251 -0.253134 2.55838
-0.673454 -0.42858 2.58932
-0.315843 -0.752543 2.51747
-0.43009 -0.548607 2.48346
-0.479924 -0.612606 2.43943
-0.603549 -0.403882 2.54903
-0.389469 -0.48042 2.48644
-0.54687 -0.468545 2.52692
-0.341994 -0.542843 2.47035
-0.218566 -0.644819 2.52594
-0.600562 -0.221062 2.63258
-0.454887 -0.358988 2.5236
-0.539915 0.111748 2.73621
-0.432316 -0.429994 2.52517
-0.474319 -0.496537 2.52088
-0.296866 -0.657347 2.52825
-0.499229 -0.416131 2.54108
-0.387176 0.0456714 2.69606
-0.409187 -0.610304 2.45303
-0.523483 -0.0963755 2.63741
-0.459622 -0.286724 2.53019
-0.482679 -0.151982 2.59572
-0.664386 -0.360917 2.63202
-0.452493 -0.212431 2.56284
-0.396698 -0.339024 2.57324
-0.574356 -0.301747 2.57923
-0.44015 -0.674658 2.47597
-0.244103 -0.590925 2.58027
-0.443589 -0.115139 2.65822
-0.261625 -0.716245 2.51168
-0.464975 -0.048163 2.68322
-0.169737 -0.596444 2.59732
-0.584332 -0.760299 2.57391
-0.360605 -0.605141 2.50704
-0.366857 -0.415089 2.55232
-0.213868 -0.550719 2.64768
-0.553161 -0.536653 2.55128
-0.533623 -0.204957 2.60483
-0.391683 -0.781079 2.59304
-0.555956 -0.158147 2.65671
-0.371696 -0.673318 2.51449
-0.406101 -0.210859 2.62114
-0.33772 -0.37441 2.60521
-0.400025 -0.0139568 2.79101
-0.174319 -0.668959 2.59417
-0.322724 -0.486972 2.53821
-0.393874 -0.166719 2.67924
-0.421075 -0.277984 2.58891
-0.207529 -0.735008 2.63437
-0.41385 -0.0884398 2.72388
-0.51141 -0.565434 2.49634
-0.618505 -0.489581 2.54921
-0.68429 -0.513781 2.61852
-0.577921 -0.0819811 2.6778
-0.649628 -0.716304 2.59988
-0.509354 0.0351485 2.734
-0.612556 -0.649719 2.62045
-0.687055 -0.56346 2.69898
-0.69998 -0.483607 2.70537
-0.533439 -0.0299804 2.66326
-0.410244 0.0992163 2.70172
-0.572125 -0.000761448 2.76908
-0.612209 -0.295495 2.64814
-0.637323 -0.571508 2.62917
-0.637351 -0.620026 2.69122
-0.581083 -0.0821798 2.74691
-0.681445 -0.448549 2.65032
-0.571102 -0.147389 2.79202
-0.63146 -0.61128 2.7691
-0.624977 -0.329747 2.71684
-0.650996 -0.403302 2.69634
-0.58554 -0.144776 2.71421
-0.6339 -0.70669 2.66833
-0.55995 -0.21564 2.7541
-0.572721 -0.777414 2.64795
-0.614608 -0.63648 2.84068
-0.589529 -0.257201 2.70979
-0.59772 -0.74496 2.72412
-0.609171 -0.678237 2.76776
-0.54187 0.114695 2.73202
-0.567328 -0.684189 2.83673
-0.583492 -0.565413 2.81149
-0.614684 -0.492793 2.55021
-0.509567 0.0347867 2.73556
-0.449444 -0.213339 2.56181
-0.439824 -0.675528 2.47228
