ply
    format ascii 1.0           
    element vertex 66
    property double x           
    property double y           
    property double z           
    end_header
-0.195506 0.00910784 1.39435
-0.170679 -0.405028 1.21728
-0.274628 0.0234838 1.3684
-0.182251 -0.484351 1.23899
-0.071754 -0.386904 1.19139
-0.253395 -0.42285 1.24039
-0.180838 -0.337572 1.20938
-0.0415488 -0.439894 1.19753
-0.120452 -0.372961 1.22378
-0.136476 -0.283937 1.23506
-0.126981 -0.456759 1.22725
-0.233966 -0.0802594 1.36803
-0.183977 -0.139185 1.31771
-0.0224049 -0.360701 1.17867
-0.238764 -0.233979 1.29594
-0.234705 -0.140508 1.34737
-0.278161 -0.461388 1.28013
-0.304884 -0.410666 1.2734
-0.0762188 -0.481309 1.2109
-0.180796 -0.205266 1.28794
-0.249315 -0.0202092 1.41925
-0.133655 -0.500107 1.27046
-0.195746 -0.286674 1.24103
-0.254081 -0.193646 1.33544
-0.265995 -0.076449 1.43272
-0.211311 -0.453961 1.27541
-0.2447 -0.482773 1.32412
-0.0624647 -0.347613 1.2355
-0.27032 -0.148282 1.39571
-0.266772 -0.362179 1.27335
-0.0785393 -0.417903 1.23758
-0.264741 -0.290034 1.32257
-0.261104 -0.249407 1.35108
-0.137703 -0.240431 1.27691
-0.1332 -0.182634 1.31109
-0.13295 -0.135962 1.34517
-0.0102461 -0.327535 1.25728
0.00254873 -0.471757 1.2396
0.0247263 -0.355033 1.21484
-0.00423802 -0.411812 1.23703
-0.0539303 -0.25396 1.3212
-0.19377 -0.0527144 1.42705
-0.0975722 -0.282609 1.28677
-0.0988701 -0.230776 1.31795
-0.0617916 -0.215299 1.40049
0.0250391 -0.315219 1.35185
-0.0265219 -0.295696 1.33089
-0.108372 -0.329186 1.26667
-0.186964 -0.263074 1.29605
-0.124456 -0.453615 1.23061
-0.235088 -0.13909 1.34615
-0.252606 -0.0205359 1.4152
-0.178327 -0.480211 1.23728
-0.229928 -0.37403 1.21245
-0.246725 -0.320873 1.23734
-0.269902 -0.146972 1.39618
-0.248215 -0.422993 1.24475
-0.270836 -0.46322 1.28533
-0.260116 -0.290031 1.32653
-0.300338 -0.413391 1.27509
-0.267078 -0.0761887 1.43337
-0.26276 -0.360793 1.27273
-0.217778 -0.304287 1.29523
-0.0816168 -0.414485 1.2318
-0.257797 -0.242201 1.35159
-0.277142 -0.390569 1.32652
