ply
    format ascii 1.0           
    element vertex 86
    property double x           
    property double y           
    property double z           
    end_header
-0.00612168 -0.260264 1.07011
-0.039859 -0.357218 1.04331
-0.0440745 -0.0868242 1.08945
-0.0151578 -0.318389 1.06164
-0.0137024 -0.363566 1.08523
-0.0187968 -0.347787 1.05972
-0.040855 -0.337191 1.02237
0.00186276 -0.345764 1.10002
-0.0408166 -0.0571737 1.095
-0.0132511 -0.221963 1.06103
-0.0700048 -0.379779 1.06877
-0.0235202 -0.286181 1.05303
-0.00928841 -0.296482 1.07208
-0.00380983 -0.188816 1.0776
0.00274194 -0.297907 1.12503
-0.0500203 -0.310778 1.02707
-0.000908736 -0.214804 1.0857
-0.0348476 -0.330025 1.04551
-0.000237124 -0.279674 1.09734
0.00483965 -0.346795 1.12871
-0.0345108 -0.30744 1.04805
-0.000616787 -0.370672 1.11395
-0.013158 -0.331201 1.0842
-0.00609453 -0.235975 1.07904
-0.0621253 -0.353207 1.02744
0.00315993 -0.193508 1.10154
0.000808467 -0.255452 1.09999
0.00142889 -0.213637 1.11328
-0.0070692 -0.305139 1.09752
-0.00695365 -0.22878 1.13271
-0.00318374 -0.173313 1.11237
-0.00736713 -0.164551 1.08797
-0.00206402 -0.323151 1.11458
-0.00938793 -0.325841 1.14616
-0.00968742 -0.369015 1.13574
-0.0547428 -0.0714134 1.11668
-0.0738672 -0.0765319 1.14015
0.000730245 -0.234125 1.10506
-0.00203009 -0.350435 1.15622
-0.0376025 -0.115214 1.09496
-0.0359609 -0.134782 1.07925
-0.0429502 -0.281451 1.04165
-0.0243068 -0.163166 1.06779
-0.025594 -0.244146 1.06025
-0.0211532 -0.201279 1.06364
-0.0666408 -0.101864 1.0776
-0.0494683 -0.201743 1.06223
-0.072289 -0.0756205 1.08831
-0.0580664 -0.18089 1.06983
-0.0742451 -0.324066 1.02392
-0.0398246 -0.22385 1.0614
-0.0348727 -0.267066 1.05968
-0.0514757 -0.249131 1.05659
-0.0311748 -0.184007 1.07333
-0.0652857 -0.0507351 1.09862
-0.0762458 -0.256562 1.06338
-0.0715877 -0.157161 1.07856
-0.0467588 -0.157365 1.06873
-0.058621 -0.135219 1.07405
-0.039948 -0.057858 1.09544
-0.00815289 -0.16635 1.08777
-0.0181186 -0.145599 1.08432
-0.00623117 -0.236228 1.07903
-0.0415884 -0.115298 1.09628
0.000594244 -0.370531 1.11405
-0.0349046 -0.329546 1.04527
0.000788926 -0.279941 1.09678
0.000389075 -0.215723 1.08499
0.00494045 -0.194927 1.10024
-0.0138517 -0.362997 1.08623
-0.0349879 -0.134178 1.07972
-0.000918133 -0.322234 1.11322
0.00086726 -0.25584 1.09997
-0.0135245 -0.331186 1.08491
0.00474604 -0.298502 1.1241
0.00163852 -0.23409 1.10393
-0.0698022 -0.102841 1.07931
0.00866932 -0.345829 1.12775
-0.00562854 -0.304601 1.09746
0.00406966 -0.214563 1.11208
-0.00368624 -0.229457 1.13023
-0.0776462 -0.0749996 1.14195
-0.00554286 -0.325666 1.14484
0.00205267 -0.34975 1.15481
-0.00989924 -0.368724 1.13538
-0.0156195 -0.183067 1.13666
