ply
    format ascii 1.0           
    element vertex 63
    property double x           
    property double y           
    property double z           
    end_header
-0.0580364 -0.0381998 0.32863
-0.0819826 -0.0988129 0.350562
-0.0993358 0.106378 0.409652
0.0473796 -0.103722 0.323039
-0.107502 -0.0668902 0.347323
-0.0966479 0.0600004 0.389412
0.0650138 -0.075426 0.334131
-0.034118 0.0943171 0.387345
0.0348421 -0.0590543 0.342902
-0.0285645 -0.0635279 0.329538
-0.0470537 0.0103912 0.327202
-0.077428 0.159841 0.438559
-0.0733264 -0.0147224 0.358513
0.00193017 -0.0427533 0.344014
-0.05789 0.0621209 0.391795
-0.0206742 0.0556275 0.38211
-0.0232313 -0.0161569 0.350265
0.00807246 -0.087767 0.344803
0.0215943 -0.0178481 0.363725
-0.0487086 0.131842 0.434413
-0.0248317 0.156026 0.464243
-0.0208311 0.117501 0.412563
0.00585371 0.0327306 0.400397
0.042528 -0.134151 0.357076
-0.0237359 0.0200788 0.354947
-0.088161 0.123412 0.437765
-0.0598799 0.168567 0.468437
-0.000865296 0.00453213 0.376439
-0.0102142 0.0937919 0.440628
0.0634919 -0.101921 0.362468
0.0166857 -0.00336268 0.41354
0.0379085 -0.0202978 0.395808
-0.104646 0.0348498 0.409252
0.0635805 -0.0633463 0.367624
0.0103486 -0.108078 0.316427
-0.0613153 0.104074 0.412256
-0.023901 -0.11796 0.323867
-0.0747788 0.0275858 0.392056
-0.0602415 0.0191076 0.361742
-0.0971858 -0.109311 0.389325
-0.0732392 -0.0140341 0.36017
-0.106841 0.0361478 0.41552
-0.0952068 -0.0027413 0.387135
-0.0858177 -0.0288421 0.424367
-0.103304 0.111589 0.473779
-0.0828497 0.14207 0.473807
-0.044177 0.00883034 0.329045
-0.105846 -0.0668695 0.345546
-0.0846332 0.0725437 0.425557
-0.0751527 -0.0339831 0.392056
-0.0301129 -0.0641538 0.454257
-0.0870385 -0.0749154 0.381818
-0.0867554 0.00773965 0.422329
-0.0853949 -0.100142 0.4209
-0.0743104 0.109714 0.490351
-0.0743405 0.0768175 0.460555
-0.0949688 0.104794 0.411907
-0.0414383 -0.007362 0.455334
-0.0365691 -0.0383294 0.445632
-0.083194 0.121277 0.443552
-0.0695339 -0.0652898 0.42774
-0.0841638 0.0391346 0.443001
-0.0740385 -0.137091 0.423056
