ply
    format ascii 1.0           
    element vertex 80
    property double x           
    property double y           
    property double z           
    end_header
0.243807 1.0454 2.71163
0.0744562 0.0441399 2.42707
0.0956958 0.58037 2.55087
0.0248061 0.153298 2.42465
-0.0550722 -0.126327 2.42031
0.202616 -0.215051 2.35276
0.19675 0.860884 2.60465
0.428426 -0.0896856 2.38806
0.0945513 0.475194 2.5387
-0.077629 -0.00443136 2.46227
0.108953 0.372019 2.51104
0.0784957 0.270562 2.52982
0.320246 -0.170114 2.38155
0.226166 -0.0997514 2.38708
0.271116 -0.28591 2.4079
0.120034 0.783532 2.62579
0.293671 0.843711 2.6473
0.191302 0.441708 2.56087
0.306155 0.529164 2.64241
0.478339 -0.000843975 2.45516
0.532586 -0.102254 2.43715
0.417986 -0.209283 2.40297
0.18895 0.053317 2.46772
0.230178 0.202626 2.53646
0.295879 0.738066 2.65564
0.125103 0.139281 2.45914
0.326528 0.153958 2.56717
0.373577 -0.285019 2.47242
0.280671 -0.338988 2.52338
0.276662 0.632437 2.64727
0.283972 0.365283 2.76005
0.516586 -0.154973 2.53301
0.265294 1.0599 2.83008
0.201037 0.629342 2.56227
0.470183 -0.246931 2.49353
0.357166 0.154074 2.67203
0.318764 0.914732 2.78277
0.542347 -0.0536225 2.56161
0.310503 0.674472 2.75254
0.272421 0.491538 2.76106
0.25467 0.366918 2.55515
0.312146 0.787494 2.75666
0.266588 0.245764 2.661
0.266021 0.408532 2.65331
0.180034 0.312751 2.52123
0.122893 -0.282124 2.41419
0.324429 -0.0588987 2.41648
0.0578824 -0.385887 2.56185
0.137782 -0.0495513 2.4475
0.0401492 -0.0985181 2.4429
0.106909 0.685272 2.59999
0.1182 -0.159264 2.40286
-0.0205954 -0.310765 2.52444
0.0266349 -0.20181 2.4524
-0.139364 -0.0920413 2.46652
0.155458 1.0981 2.78085
0.0270624 0.73627 2.67064
-0.162311 -0.180484 2.52735
-0.0669799 -0.212577 2.50339
0.112151 0.896613 2.67666
-0.0173277 0.0789017 2.49863
-0.0258154 0.386711 2.64902
-0.0154785 0.304109 2.56943
-0.0859096 0.142337 2.57251
0.152478 0.984948 2.75213
0.24698 -0.0482633 2.49237
0.0220314 0.6286 2.62989
0.00264635 0.532611 2.61952
-0.168871 -0.00553495 2.62105
-0.0811645 0.238897 2.60528
-0.19693 -0.0720499 2.55576
0.0054299 -0.0250598 2.48628
0.0429448 0.448886 2.61117
-0.0139919 0.19651 2.51578
0.297015 0.739438 2.66096
0.199726 0.631328 2.57189
0.292629 0.848253 2.65387
0.271261 -0.276543 2.42289
0.534612 -0.0971842 2.43284
0.307256 0.529422 2.64455
