ply
    format ascii 1.0           
    element vertex 76
    property double x           
    property double y           
    property double z           
    end_header
-0.247249 -0.03015 2.06913
-0.216559 -0.10122 1.99134
-0.232945 -0.253412 1.79533
-0.304972 -0.677 1.4904
-0.265963 -0.483987 1.63164
-0.0396576 -0.500543 1.60631
-0.244054 -0.634418 1.49172
-0.159196 -0.392442 1.65712
-0.148659 -0.333706 1.74845
-0.155711 -0.276728 1.79876
-0.120938 -0.642323 1.48437
-0.0952549 -0.53069 1.5728
-0.0719642 -0.584837 1.53272
-0.151875 -0.495589 1.58216
-0.259278 -0.200526 1.85032
-0.198847 -0.30644 1.75442
-0.179428 -0.673353 1.46876
-0.226934 -0.578057 1.53689
-0.258956 -0.335617 1.75878
-0.0503877 -0.631404 1.48156
-0.164656 -0.610101 1.50772
-0.0330085 -0.55637 1.57576
-0.10549 -0.440312 1.6745
-0.0867845 -0.687746 1.46072
-0.200664 -0.170652 1.89209
-0.178546 -0.22467 1.84639
-0.230352 -0.420473 1.66551
-0.18669 -0.548663 1.58467
-0.291693 -0.109304 2.0291
-0.316688 -0.614447 1.69939
-0.203174 -0.372694 1.70395
-0.17224 -0.463818 1.63668
-0.319068 -0.0724593 2.08678
-0.301908 -0.294853 1.80529
-0.303436 -0.386739 1.7913
-0.30492 -0.469611 1.70388
-0.244741 -0.580803 1.61531
-0.262662 -0.164854 1.90644
-0.307344 -0.202857 1.9626
-0.278382 -0.555155 1.68518
-0.199864 -0.736711 1.52048
-0.294405 -0.156822 2.05122
-0.261523 -0.409135 1.72646
-0.293012 -0.452894 1.78574
-0.280718 -0.628511 1.56241
-0.0385409 -0.470915 1.66459
-0.208886 -0.0709514 2.10541
-0.170912 -0.125638 2.03329
-0.101766 -0.494923 1.62703
-0.0960812 -0.406947 1.78324
-0.0283947 -0.561604 1.57643
0.023459 -0.619906 1.62447
-0.117959 -0.26787 1.85595
-0.143667 -0.215052 1.9028
0.00459192 -0.558946 1.62149
-0.159306 -0.166605 1.95489
-0.121884 -0.329262 1.86093
-0.125784 -0.345477 1.80569
-0.123215 -0.407167 1.7252
-0.0371021 -0.626375 1.57526
-0.234472 -0.028041 2.15366
-0.10389 -0.395577 1.85286
-0.143199 -0.223556 2.00363
-0.00254143 -0.571643 1.68747
-0.0332462 -0.688372 1.54231
-0.240162 -0.160662 1.96184
-0.258622 -0.340891 1.75811
-0.294858 -0.0251825 2.12095
-0.304422 -0.477212 1.70233
-0.18654 -0.548175 1.58569
-0.304807 -0.390542 1.78099
-0.241372 -0.57643 1.60819
-0.310538 -0.209775 1.96587
-0.326983 -0.672711 1.55366
-0.316958 -0.625674 1.6928
-0.273199 -0.630413 1.56897
