ply
    format ascii 1.0           
    element vertex 78
    property double x           
    property double y           
    property double z           
    end_header
-0.251438 -0.491702 1.70922
-0.675349 0.10784 2.06809
-0.615297 0.0439148 2.01984
-0.396532 -0.468826 1.67265
-0.418929 -0.226681 1.8058
-0.235745 -0.43353 1.73024
-0.450873 -0.165174 1.88247
-0.482576 -0.327365 1.76502
-0.318447 -0.345384 1.77794
-0.54501 -0.106852 1.88015
-0.288332 -0.304866 1.82081
-0.438072 -0.517013 1.66052
-0.405591 -0.41225 1.70893
-0.342127 -0.43228 1.71062
-0.496127 -0.149506 1.86517
-0.52133 -0.0664235 1.93567
-0.480082 -0.112107 1.90734
-0.279765 -0.391764 1.76166
-0.56183 -0.0204301 1.95867
-0.371528 -0.32276 1.76076
-0.292999 -0.455085 1.70827
-0.329997 -0.494605 1.68285
-0.374721 -0.256173 1.84082
-0.473569 -0.211936 1.83108
-0.590815 -0.059696 1.90925
-0.474632 -0.261389 1.79525
-0.394601 -0.375495 1.76322
-0.54025 -0.184854 1.85174
-0.413046 -0.293233 1.79976
-0.686159 0.0320853 2.03583
-0.59763 -0.1524 1.87934
-0.616075 -0.0244387 1.9524
-0.578841 -0.233099 1.87208
-0.539762 -0.316235 1.81609
-0.498144 -0.387292 1.81791
-0.525819 -0.444424 1.82561
-0.653839 -0.118338 1.97729
-0.72484 0.10913 2.09377
-0.732473 0.0627487 2.07332
-0.667735 -0.0601086 1.99618
-0.559673 -0.293999 1.89704
-0.449136 -0.462942 1.72908
-0.480974 -0.511697 1.7056
-0.521791 -0.250528 1.84328
-0.444379 -0.409219 1.77139
-0.536117 -0.417422 1.88974
-0.689839 -0.00846919 2.07767
-0.465812 -0.445293 1.82487
-0.602473 -0.222457 1.98892
-0.485498 -0.497571 1.83813
-0.622268 -0.176907 1.95317
-0.634916 -0.069306 1.94981
-0.613391 -0.116222 1.92421
-0.665315 -0.118818 2.02802
-0.311588 -0.27334 1.86915
-0.479341 -0.112627 1.91223
-0.619238 -0.0124274 2.00895
-0.552766 -0.00569615 2.03126
-0.348973 -0.311366 1.81957
-0.438916 -0.514987 1.6532
-0.34022 -0.434405 1.70901
-0.275059 -0.391161 1.75642
-0.290171 -0.4535 1.70486
-0.3282 -0.493658 1.67779
-0.231409 -0.432692 1.7248
-0.374768 -0.258509 1.84872
-0.256005 -0.356843 1.80559
-0.519908 -0.0530421 2.00337
-0.474169 -0.0968696 1.98043
-0.245179 -0.34543 1.85672
-0.622867 0.0459666 2.03171
-0.411636 -0.226348 1.88141
-0.408381 -0.216295 1.94189
-0.214863 -0.389696 1.86966
-0.266235 -0.344367 1.90929
-0.445839 -0.163907 1.93864
-0.252824 -0.415772 1.81034
-0.21764 -0.457577 1.783
