ply
    format ascii 1.0           
    element vertex 89
    property double x           
    property double y           
    property double z           
    end_header
0.256827 -0.422097 1.82334
-0.205394 -0.785005 1.76454
-0.242296 -0.957534 1.84474
-0.155023 -0.828184 1.60084
-0.259619 -0.9915 1.70109
-0.175039 -0.845157 1.66439
-0.132145 -0.767251 1.68273
-0.00708121 -0.589626 1.78935
-0.222867 -0.890079 1.6763
-0.108019 -0.690616 1.81894
0.132486 -0.457826 1.86018
-0.0304396 -0.614588 1.84327
-0.0698047 -0.675558 1.77732
0.00536567 -0.627411 1.74223
0.0614167 -0.541142 1.80007
-0.173181 -0.805652 1.71488
-0.202749 -0.856489 1.73002
-0.0160419 -0.678163 1.7219
-0.17457 -0.872126 1.87434
-0.129224 -0.722029 1.72446
-0.194829 -0.921284 1.82885
0.105173 -0.508636 1.78893
-0.0836079 -0.737007 1.67037
-0.0729062 -0.700371 1.72388
-0.234385 -1.01968 1.84777
-0.124009 -0.841114 1.91213
-0.209701 -0.969251 1.79603
-0.215095 -0.920161 1.88497
-0.164353 -0.88305 1.93657
-0.190251 -0.937926 1.93941
-0.210293 -0.917967 1.73814
0.234143 -0.41987 1.88608
-0.113477 -0.750679 1.81626
-0.0839621 -0.789068 1.91555
0.0231265 -0.576471 1.84276
0.0506551 -0.527425 1.87193
-0.114901 -0.791384 1.85793
-0.0964977 -0.725047 1.77127
-0.201447 -0.845363 1.79257
-0.064321 -0.717356 1.88854
-0.100006 -0.814762 1.62703
-0.204377 -0.980788 1.66945
-0.226291 -1.0225 1.76265
-0.126257 -0.882012 1.98488
0.14361 -0.505056 1.90933
-0.0565153 -0.672331 1.84624
-0.140921 -0.781514 1.76687
-0.029183 -0.64349 1.78893
-0.20595 -0.980619 1.73591
0.291993 -0.402007 1.87374
0.0043896 -0.612254 1.89741
-0.138452 -0.939566 1.97682
-0.0450962 -0.852608 1.99989
0.0331489 -0.686325 1.91284
-0.0825361 -0.888181 2.02782
-0.207654 -0.982975 1.89085
-0.0840153 -0.944331 2.01249
0.0722649 -0.585303 1.89128
-0.14479 -0.828781 1.80159
0.1252 -0.579479 1.92444
-0.0697191 -0.706065 1.72538
-0.0176605 -0.678742 1.72322
-0.0806965 -0.738548 1.67304
0.266598 -0.417852 1.82715
-0.166664 -0.888472 1.61503
-0.144056 -1.03471 1.57989
0.110982 -0.509099 1.78881
-0.107828 -0.905993 1.55911
0.115945 -0.580026 1.75536
-0.187624 -0.92966 1.64452
-0.169667 -0.988113 1.61435
-0.143295 -0.933331 1.59716
-0.100624 -0.845504 1.57434
0.0601948 -0.60258 1.76909
-0.0117846 -0.835701 1.65328
-0.106995 -0.991576 1.58428
0.247273 -0.475974 1.8029
0.198488 -0.445883 1.8406
-0.0968977 -0.821213 1.63478
0.165311 -0.485945 1.80571
0.169571 -0.542955 1.76797
-0.0303537 -0.614304 1.83999
-0.116724 -0.748378 1.81587
-0.142544 -0.78173 1.76682
0.0217606 -0.57222 1.8396
-0.125977 -0.836987 1.91338
-0.193995 -0.922152 1.8312
-0.164682 -0.880592 1.93629
-0.199653 -0.985613 1.74311
