ply
    format ascii 1.0           
    element vertex 89
    property double x           
    property double y           
    property double z           
    end_header
-0.187059 -1.64589 3.57147
-0.239071 -1.30201 3.40067
-0.0376045 -1.30008 3.62293
-0.39097 -1.59875 3.44639
-0.154247 -1.19957 3.53255
-0.128345 -1.35101 3.56798
-0.460995 -1.52328 3.41819
-0.12967 -1.46092 3.5377
-0.428379 -1.68365 3.51074
-0.0706627 -1.39642 3.64889
-0.386702 -1.49964 3.48233
-0.210379 -1.4026 3.49184
-0.243021 -1.49863 3.53317
-0.304302 -1.39146 3.43814
-0.122453 -1.48307 3.64386
-0.347814 -1.66274 3.58375
-0.458891 -1.4159 3.4391
-0.451073 -1.23913 3.45044
-0.349995 -0.827643 3.45944
-0.370158 -1.17324 3.44285
-0.196075 -1.2968 3.50163
-0.0921366 -1.58856 3.83843
-0.523243 -0.494856 3.47042
-0.424316 -0.891725 3.40832
-0.111548 -1.54671 3.74453
-0.398529 -0.689869 3.49121
-0.352259 -1.578 3.53859
-0.511362 -1.08684 3.43412
-0.356874 -1.0765 3.39376
-0.562236 -1.53281 3.41602
-0.164071 -1.10604 3.57702
-0.168807 -1.57824 3.65125
-0.261812 -0.968495 3.56533
-0.657358 -1.40088 3.40654
-0.539791 -1.32873 3.43918
-0.0453718 -1.27447 3.72493
-0.562306 -1.42864 3.40636
-0.557828 -1.21544 3.44106
-0.027807 -1.36043 3.7727
-0.208244 -1.13379 3.46977
-0.316964 -1.01385 3.46408
-0.504155 -0.681186 3.41807
-0.369011 -0.694851 3.6189
-0.452471 -0.783189 3.44527
-0.302172 -1.11367 3.4765
-0.293261 -0.870572 3.53602
-0.400314 -0.592416 3.52865
-0.538446 -0.8654 3.41935
-0.505022 -0.418439 3.65804
-0.350469 -0.929659 3.47892
-0.623887 -0.334738 3.54285
-0.404442 -0.595374 3.63329
-0.35192 -0.780282 3.54399
-0.711176 -1.2894 3.45998
-0.276712 -1.58998 3.60887
-0.620863 -0.565794 3.48309
-0.246048 -1.05356 3.52467
-0.436203 -1.00646 3.42931
-0.287514 -1.24012 3.4768
-0.487058 -1.60789 3.46692
-0.60902 -0.955234 3.50853
-0.756669 -1.38017 3.43004
-0.114352 -1.24006 3.66614
-0.6262 -0.448848 3.5145
-0.354132 -1.31299 3.48531
-0.659121 -1.49607 3.45114
-0.567201 -0.758819 3.47725
-0.543192 -0.308448 3.6316
-0.531518 -0.414593 3.56208
-0.646326 -1.3295 3.49298
-0.622956 -0.847774 3.4619
-0.645341 -0.242169 3.61519
-0.456494 -0.508402 3.5711
-0.0463141 -1.28129 3.7437
-0.0702666 -1.41297 3.66749
-0.661686 -0.701091 3.51861
-0.732143 -1.28191 3.47197
-0.729944 -0.332267 3.64947
-0.525961 -1.03623 3.52702
-0.702897 -0.516308 3.55921
-0.628247 -1.22455 3.52858
-0.802962 -1.34337 3.49839
-0.610802 -0.947889 3.50348
-0.379143 -1.39198 3.47972
-0.355135 -0.783519 3.55568
-0.417163 -1.67982 3.50011
-0.179262 -1.64934 3.58327
-0.162357 -1.5838 3.6591
-0.647854 -0.246638 3.62514
