ply
    format ascii 1.0           
    element vertex 67
    property double x           
    property double y           
    property double z           
    end_header
-0.189162 -0.292196 1.97476
-0.196848 -0.190422 2.06682
-0.0858402 -0.514916 1.91103
-0.184183 -0.543861 1.793
-0.225777 -0.575646 1.77563
-0.172599 -0.407741 1.95225
-0.167176 -0.344803 1.95858
-0.203436 -0.439179 1.91211
-0.147851 -0.493259 1.8933
-0.117974 -0.456564 1.93127
-0.218015 -0.510167 1.81673
-0.27289 -0.548024 1.79821
-0.142987 -0.660063 1.79538
-0.0622935 -0.712163 1.90004
-0.17184 -0.597572 1.783
-0.130822 -0.564869 1.81322
-0.15521 -0.238489 2.06808
-0.0312279 -0.682211 1.93907
-0.0993491 -0.633198 1.8346
-0.164531 -0.729874 1.83858
-0.206661 -0.692558 1.81616
-0.111132 -0.692205 1.83618
-0.0885915 -0.791701 1.95497
-0.100076 -0.430404 1.98877
0.00175269 -0.702728 1.97603
0.00199055 -0.74857 1.97704
-0.159495 -0.277072 2.02321
-0.126214 -0.374733 1.9954
-0.169633 -0.525576 1.84597
-0.0746058 -0.487376 1.96623
-0.0608575 -0.632577 1.95193
-0.0966001 -0.611307 1.88554
-0.139696 -0.32319 2.05939
-0.0853248 -0.572344 1.92611
-0.127414 -0.564304 1.87187
-0.050598 -0.746557 1.94542
-0.0725402 -0.54636 1.98067
-0.131784 -0.780704 1.92864
-0.0765356 -0.478656 2.02586
-0.0994987 -0.668744 1.88975
-0.13128 -0.378397 2.08923
-0.0648832 -0.63367 2.01542
-0.167442 -0.339258 2.01089
-0.0860805 -0.590139 2.04179
-0.101215 -0.42451 2.05164
-0.113797 -0.720509 1.87774
-0.0378059 -0.673698 2.0014
-0.0934625 -0.534669 2.04816
-0.149981 -0.61336 1.83282
-0.24869 -0.297317 1.97396
-0.250921 -0.209717 2.04246
-0.223458 -0.364363 1.95477
-0.0405797 -0.672939 2.05562
-0.25145 -0.417662 1.93842
-0.200297 -0.691742 1.8117
-0.218768 -0.270842 2.02164
-0.24027 -0.477751 1.93577
-0.200067 -0.638713 1.80953
-0.275692 -0.266683 2.03829
-0.265528 -0.517588 1.84149
-0.155645 -0.241387 2.06471
-0.240906 -0.659629 1.84397
-0.290799 -0.323752 2.04038
-0.252784 -0.605498 1.81582
-0.259531 -0.519503 1.98111
-0.250725 -0.348663 2.00755
-0.224859 -0.506949 1.8693
