ply
    format ascii 1.0           
    element vertex 67
    property double x           
    property double y           
    property double z           
    end_header
-0.251082 -0.330024 2.45098
-0.164552 -0.0816733 2.52784
-0.137076 -0.781438 2.30957
-0.228719 -0.43727 2.41948
-0.294023 -0.471701 2.51217
-0.469052 -0.95876 2.40246
-0.320212 -0.336727 2.54109
-0.298829 -0.635352 2.46098
-0.21844 -0.554503 2.44526
-0.258814 -0.132908 2.58659
-0.24383 -0.747814 2.37559
-0.424495 -0.818634 2.40701
-0.406009 -0.896222 2.34187
-0.50022 -0.89688 2.48598
-0.0956275 -0.17774 2.4828
-0.166368 -0.660095 2.35942
0.133222 -1.09074 2.32493
-0.152097 -0.27177 2.45356
-0.212845 -1.03706 2.29924
-0.309206 -1.10518 2.33148
0.0365496 -1.07386 2.33919
-0.309072 -0.923134 2.29057
-0.115366 -0.472051 2.41094
-0.385491 -0.999128 2.33593
-0.134805 -1.16383 2.40495
-0.0435037 -1.14636 2.34727
0.157372 -1.16978 2.35152
-0.0717438 -0.582628 2.3883
0.00010879 -0.97314 2.3698
-0.319684 -0.835113 2.37358
-0.148626 -0.967604 2.33812
-0.0536235 -0.69959 2.344
-0.0566585 -0.336402 2.48571
-0.0888468 -0.87642 2.35202
-0.225614 -0.888551 2.34891
0.114813 -1.02483 2.40032
0.0460559 -1.18098 2.37535
0.0138377 -0.422204 2.52384
-0.00445906 -0.798381 2.38753
0.087689 -0.943022 2.4424
0.19223 -0.991879 2.46954
-0.122457 -1.07028 2.38127
-0.150558 -0.394529 2.48257
0.0281926 -0.649892 2.40915
0.0165785 -0.533673 2.45308
0.0829868 -0.846579 2.47974
-0.205636 -1.13772 2.34308
0.162492 -0.914328 2.5346
-0.0794304 -0.059064 2.70816
-0.0456148 -0.12303 2.56931
0.0821272 -0.624201 2.49933
0.00659123 -0.316546 2.63316
-0.341209 -0.793443 2.45826
0.192816 -1.09904 2.42896
0.112905 -0.820999 2.56939
0.149991 -1.16764 2.34501
-0.462966 -0.964681 2.39923
-0.291951 -0.471495 2.50782
-0.23904 -1.20799 2.44129
0.0359112 -1.25695 2.47386
-0.322292 -0.576484 2.55582
-0.294094 -0.689714 2.55955
-0.334451 -1.15568 2.45458
-0.363233 -1.06001 2.42345
-0.439334 -0.815806 2.51108
-0.347425 -1.07436 2.53643
-0.272193 -0.239082 2.64259
