ply
    format ascii 1.0           
    element vertex 69
    property double x           
    property double y           
    property double z           
    end_header
-0.320028 0.0189518 4.16904
-0.206219 -0.98442 3.41203
-0.105146 -0.902942 3.48086
-0.433346 0.0908425 4.10169
-0.26998 -0.860871 3.41021
-0.327285 -1.06603 3.26834
-0.300191 -0.730894 3.45756
-0.385571 -0.429185 3.82511
-0.330704 -0.187602 3.97742
-0.269891 -0.325753 3.88972
-0.288902 -0.541162 4.02728
-0.485837 -1.01859 3.2059
-0.238719 -1.13774 3.36886
-0.304125 -1.19784 3.26429
-0.615791 -0.984847 3.13444
-0.458434 -0.697107 3.42664
-0.329865 -0.591007 3.74937
-0.646156 -0.814213 3.35434
-0.36596 -0.628172 3.52397
-0.200162 -0.826051 3.53675
-0.411523 -0.807235 3.40625
-0.555193 -1.12284 3.15399
-0.440939 -0.569689 3.63883
-0.472067 -0.461605 3.73141
-0.612095 -0.918131 3.25428
-0.501242 -0.947092 3.31683
-0.412524 -0.28771 3.8894
-0.699012 -1.0954 3.14577
-0.381796 -0.931219 3.41442
-0.167216 -1.15058 3.59747
-0.475265 -0.212744 4.00783
-0.578043 -0.522953 3.68414
-0.534122 -0.86768 3.41728
-0.661462 -0.753979 3.48767
-0.772719 -0.797684 3.41927
-0.756748 -0.906329 3.34257
-0.595843 -0.465661 3.80161
-0.664442 -0.570183 3.74133
-0.731715 -0.972611 3.2181
-0.503117 -0.638995 3.54438
-0.289707 -0.722237 3.60242
-0.318451 -0.664512 3.93976
-0.355673 -0.540555 3.8874
-0.147689 -1.0069 3.54647
-0.25943 -0.759465 3.764
-0.0892182 -0.912165 3.62382
-0.204602 -0.810933 3.67054
-0.310589 -1.26826 3.3572
-0.243917 -0.837349 3.87898
-0.165162 -1.11346 3.47722
-0.347659 -1.27116 3.61295
-0.312059 -0.340861 4.0276
-0.442004 -1.34476 3.61121
-0.336796 -1.26816 3.46644
-0.462197 -0.701266 3.42765
-0.612638 -0.983646 3.13566
-0.410414 -0.809526 3.41194
-0.648516 -0.825757 3.35418
-0.413552 -0.289097 3.8931
-0.517078 -0.385611 3.83845
-0.384194 -0.932861 3.42476
-0.607998 -0.923675 3.25174
-0.437882 -1.15635 3.26226
-0.471535 -0.212376 4.00013
-0.662976 -0.774608 3.48423
-0.590193 -0.539833 3.68575
-0.506331 -0.651993 3.53539
-0.759071 -0.933027 3.36592
-0.404215 -1.03613 3.34745
