ply
    format ascii 1.0           
    element vertex 70
    property double x           
    property double y           
    property double z           
    end_header
0.0275035 -0.052418 0.429922
0.0305311 0.00899463 0.467512
0.0482461 -0.0732413 0.428618
0.0485877 -0.11189 0.388324
0.0314623 -0.0290288 0.456229
0.0449547 -0.151294 0.389001
0.0620535 -0.127123 0.389477
0.0628628 -0.112216 0.401563
0.0465555 -0.130239 0.383669
0.0487862 -0.0949108 0.397173
0.0268945 -0.075886 0.418839
0.0570352 -0.089145 0.441181
0.057287 -0.150511 0.404577
0.0468846 -0.05086 0.460205
0.00584713 -0.11961 0.400409
0.0313526 -0.121877 0.387104
0.03039 -0.105513 0.39361
0.0359313 -0.014446 0.479052
0.0208254 -0.152446 0.387184
0.0311765 -0.166887 0.391164
0.0324145 -0.139525 0.38934
0.011834 -0.0819785 0.423364
0.0102763 -0.0993632 0.409997
-0.00342393 -0.174181 0.418465
-0.00677852 -0.10661 0.406976
-0.00800249 -0.128854 0.402453
0.0306604 -0.0955368 0.40714
0.0136933 0.0129962 0.478138
0.0115098 -0.0528963 0.441013
0.0173263 -0.133966 0.390848
0.039608 -0.0347916 0.473468
0.0531561 -0.168787 0.394633
0.0537123 -0.0722106 0.447607
0.0447748 -0.0572952 0.440733
0.0539286 -0.171214 0.414234
0.0647637 -0.132088 0.408009
0.0552699 -0.121867 0.450123
0.0297581 0.0140147 0.490298
0.0446861 -0.0914253 0.421848
0.0571038 -0.108573 0.435705
0.0594861 -0.126064 0.430651
0.0592942 -0.142883 0.424414
0.0492988 -0.103306 0.457155
0.0261308 -0.0108754 0.462336
0.0327792 -0.152737 0.476511
0.0371132 -0.0126566 0.480146
0.0282858 0.00956322 0.469689
0.0338689 -0.13477 0.472576
0.0399375 -0.0912776 0.470835
0.053676 -0.107054 0.417278
0.0418694 -0.147341 0.448119
0.0471582 -0.158605 0.426954
0.0101331 0.00717421 0.497876
0.0271084 -0.0426205 0.488145
0.024635 -0.160394 0.45737
0.0362752 -0.112409 0.471297
0.029554 -0.0606224 0.469752
0.0377775 -0.129981 0.45461
0.0309647 -0.17155 0.431086
0.0181442 -0.13922 0.481618
0.0106447 -0.0563952 0.480627
0.0385812 -0.0706714 0.454974
0.0174628 -0.0217786 0.485397
0.0200637 -0.0757056 0.478065
0.0210585 -0.0988934 0.476632
0.0208485 -0.176961 0.449155
0.00455142 -0.177277 0.459695
-0.0117395 -0.168965 0.464975
0.0177924 -0.122204 0.470917
-0.00745488 -0.185478 0.456882
